x y z 
9.536557 0.373499 -0.783810
8.467419 0.638875 -0.777418
7.587228 0.851291 -0.774307
7.159234 0.014350 -0.783559
6.535038 0.252175 -0.777868
6.011391 0.451771 -0.775350
5.584520 0.624810 -0.778252
5.344743 0.008008 -0.784383
5.021343 0.190868 -0.785542
4.724013 0.352534 -0.786524
4.418929 0.493932 -0.783789
4.284635 0.003428 -0.790785
4.106279 0.153502 -0.798440
3.911300 0.289276 -0.801287
3.706913 0.414542 -0.800736
3.617907 -0.001273 -0.807836
3.469629 0.127095 -0.809163
3.319741 0.245176 -0.810362
3.186296 0.355308 -0.814947
3.093477 -0.004814 -0.814850
3.009459 0.107872 -0.823654
2.876110 0.211655 -0.819266
2.785973 0.311160 -0.827926
24.507164 2.690491 -0.687799
12.184731 1.333598 -0.791153
9.545626 0.344527 -0.784465
8.469340 0.612894 -0.777418
7.599694 0.829089 -0.775316
7.156262 -0.007611 -0.783233
6.534789 0.232090 -0.777750
6.012748 0.433326 -0.775350
5.583457 0.607352 -0.777840
5.342764 -0.008387 -0.784093
5.016968 0.175290 -0.784769
4.723105 0.337899 -0.786196
4.442941 0.482820 -0.787781
4.295442 -0.009741 -0.792781
4.088091 0.140263 -0.794816
3.899464 0.276375 -0.798685
3.711083 0.403484 -0.801366
3.598366 -0.012306 -0.803478
3.471949 0.116515 -0.809617
3.335015 0.236018 -0.813910
3.191225 0.345949 -0.815932
3.066371 -0.014179 -0.807717
3.003027 0.098417 -0.821807
2.883463 0.203303 -0.821179
2.765939 0.300334 -0.821695
24.529219 2.616776 -0.688189
12.210597 1.298531 -0.792570
9.556598 0.315569 -0.785284
8.479127 0.587458 -0.778148
7.631883 0.808915 -0.778343
7.141295 -0.029505 -0.781601
6.541425 0.212233 -0.778459
6.032850 0.416174 -0.777774
5.585294 0.590220 -0.777840
5.343703 -0.024782 -0.784238
5.009582 0.159645 -0.783534
4.717230 0.322935 -0.785050
4.441464 0.468877 -0.787261
4.286542 -0.022872 -0.791148
4.094389 0.127905 -0.795960
3.890519 0.263747 -0.796683
3.712303 0.392097 -0.801366
3.620759 -0.023491 -0.808490
3.473264 0.105892 -0.809844
3.339601 0.226048 -0.814856
3.199018 0.336867 -0.817657
3.106927 -0.023899 -0.818416
2.987889 0.088745 -0.817586
2.874475 0.193809 -0.818446
2.760171 0.291142 -0.819712
24.594800 2.547482 -0.689807
12.224449 1.262088 -0.793214
9.564496 0.286457 -0.785857
8.481884 0.561507 -0.778239
7.631360 0.785192 -0.778040
7.157075 -0.051528 -0.783342
6.546016 0.192280 -0.778931
6.036077 0.397794 -0.778029
5.587078 0.573082 -0.777840
5.356463 -0.041276 -0.786126
5.009061 0.144247 -0.783379
4.708355 0.307818 -0.783412
4.448760 0.455850 -0.788302
4.286452 -0.036023 -0.791148
4.103593 0.115591 -0.797677
3.897175 0.252190 -0.797884
3.711544 0.380507 -0.800946
3.624573 -0.034636 -0.809362
3.488176 0.095636 -0.813249
3.318948 0.214423 -0.809652
3.189431 0.325967 -0.814947
3.131980 -0.033701 -0.825038
2.993932 0.079732 -0.819169
2.856817 0.183816 -0.813254
2.776316 0.284236 -0.824244
24.620404 2.473813 -0.690308
12.283870 1.230147 -0.796821
11.059430 -0.106027 -0.802294
7.349592 0.197554 -0.603819
8.486548 0.535671 -0.778513
7.631753 0.761578 -0.777838
7.165829 -0.073577 -0.784321
6.559479 0.172536 -0.780467
6.026381 0.378590 -0.776626
5.591767 0.556232 -0.778252
5.350375 -0.057645 -0.785255
4.999604 0.128624 -0.781835
4.718138 0.293923 -0.784886
4.448177 0.442005 -0.787955
4.288288 -0.049196 -0.791511
4.106872 0.103075 -0.798249
3.915533 0.241317 -0.801488
3.711721 0.369021 -0.800736
3.616643 -0.045658 -0.807618
3.491373 0.085005 -0.813930
3.315711 0.204001 -0.808706
3.193310 0.316467 -0.815686
3.121225 -0.043163 -0.822236
2.989341 0.070433 -0.817850
2.880411 0.176462 -0.819813
2.770495 0.275053 -0.822262
24.747266 2.409893 -0.693655
12.324336 1.196021 -0.799204
11.063042 -0.140007 -0.802583
7.347174 0.174934 -0.603573
8.491134 0.509811 -0.778786
7.635043 0.738256 -0.777939
7.176503 -0.095707 -0.785518
6.573876 0.152734 -0.782120
6.036424 0.360632 -0.777774
5.591475 0.538884 -0.777977
5.374906 -0.074402 -0.788885
5.000962 0.113308 -0.781989
4.732804 0.280263 -0.787179
4.457355 0.429111 -0.789344
4.289100 -0.062367 -0.791692
4.107169 0.090475 -0.798249
3.923102 0.229704 -0.802889
3.739112 0.360163 -0.806404
3.645761 -0.057213 -0.814156
3.500381 0.074480 -0.815973
3.315351 0.193771 -0.808469
3.205842 0.307780 -0.818642
3.124946 -0.052804 -0.823255
2.992436 0.061321 -0.818641
2.876137 0.167345 -0.818446
2.774189 0.266828 -0.823111
24.767480 2.335178 -0.694017
12.414386 1.166326 -0.804808
11.097465 -0.174496 -0.805116
7.339705 0.152227 -0.602918
8.500611 0.484211 -0.779515
7.639253 0.715014 -0.778141
7.187109 -0.117903 -0.786715
6.591191 0.132905 -0.784128
6.042454 0.342391 -0.778412
5.593102 0.521727 -0.777977
5.377620 -0.090942 -0.789320
5.014128 0.098216 -0.783997
4.744476 0.266350 -0.788981
4.470417 0.416530 -0.791427
4.287905 -0.075508 -0.791511
4.101539 0.077762 -0.797104
3.920853 0.217504 -0.802288
3.722676 0.347056 -0.802626
3.639714 -0.068287 -0.812848
3.489882 0.063546 -0.813476
3.325631 0.184136 -0.810835
3.183611 0.295792 -0.812729
3.117034 -0.062236 -0.821218
2.981037 0.051938 -0.815476
2.890084 0.159261 -0.822272
2.771175 0.257960 -0.821978
24.745659 2.256550 -0.693209
12.420888 1.128504 -0.805001
11.104855 -0.208692 -0.805695
7.338145 0.129673 -0.602755
8.494102 0.457701 -0.778786
7.651320 0.692471 -0.779150
7.192677 -0.140069 -0.787367
6.593553 0.112717 -0.784364
6.043476 0.323852 -0.778412
5.596650 0.504743 -0.778252
5.386219 -0.107617 -0.790627
5.024284 0.082995 -0.785542
4.744286 0.251741 -0.788817
4.492271 0.404669 -0.795072
4.289619 -0.088703 -0.791874
4.084091 0.064898 -0.793671
3.913675 0.205064 -0.800687
3.725671 0.335809 -0.803045
3.647293 -0.079624 -0.814592
3.485191 0.052765 -0.812341
3.330062 0.174135 -0.811781
3.232768 0.290358 -0.825047
3.126497 -0.072022 -0.823765
3.004330 0.043125 -0.821807
2.853094 0.148445 -0.811615
2.772909 0.249543 -0.822262
24.920747 2.195445 -0.697922
12.426280 1.090567 -0.805130
11.122111 -0.243153 -0.806997
7.337512 0.107145 -0.602673
8.486515 0.431184 -0.777965
7.671248 0.670553 -0.780966
7.195195 -0.162202 -0.787694
6.592875 0.092473 -0.784246
6.042460 0.305209 -0.778156
5.605079 0.488172 -0.779212
5.375972 -0.123914 -0.789175
5.012661 0.067421 -0.783688
4.732228 0.236544 -0.786687
4.494473 0.390970 -0.795246
4.286378 -0.101793 -0.791329
4.087215 0.052405 -0.794243
3.884928 0.191608 -0.794682
3.743243 0.325819 -0.806613
3.646056 -0.090789 -0.814374
3.478520 0.041990 -0.810752
3.283999 0.161625 -0.800427
3.225919 0.279769 -0.823076
3.111761 -0.081235 -0.819944
2.993839 0.033787 -0.818905
2.854497 0.139738 -0.811888
2.773661 0.241034 -0.822262
24.826769 2.110428 -0.695105
12.464370 1.055385 -0.807384
11.132280 -0.277547 -0.807793
7.340795 0.084668 -0.602918
8.493767 0.405431 -0.778513
7.682192 0.647767 -0.781874
7.209569 -0.184658 -0.789326
6.559368 0.071876 -0.780230
6.045349 0.286764 -0.778412
5.610499 0.471306 -0.779761
5.365676 -0.140148 -0.787723
5.003952 0.051950 -0.782298
4.725048 0.221655 -0.785377
4.487800 0.376521 -0.793857
4.288012 -0.114996 -0.791692
4.091283 0.039904 -0.795006
3.899200 0.180322 -0.797484
3.739353 0.313924 -0.805564
3.635028 -0.101674 -0.811977
3.474737 0.031283 -0.809844
3.314568 0.152938 -0.807760
3.222899 0.269548 -0.822091
3.108597 -0.090696 -0.819180
2.999715 0.024650 -0.820488
2.853951 0.130935 -0.811615
2.783945 0.233325 -0.825094
24.967622 2.045268 -0.698870
12.469539 1.017302 -0.807513
11.143340 -0.312034 -0.808661
9.634217 0.081559 -0.791259
8.525810 0.380748 -0.781339
7.686126 0.624356 -0.782076
7.208969 -0.206775 -0.789326
6.554593 0.051713 -0.779640
6.058091 0.268743 -0.779942
5.610931 0.454011 -0.779624
5.359287 -0.156436 -0.786852
5.005076 0.036605 -0.782452
4.722749 0.207028 -0.784886
4.485990 0.362513 -0.793337
4.308280 -0.128768 -0.795504
4.087460 0.027326 -0.794243
3.902671 0.168486 -0.798085
3.741273 0.302529 -0.805774
3.635675 -0.112856 -0.812195
3.477738 0.020639 -0.810525
3.333465 0.143562 -0.812254
3.193763 0.257246 -0.814454
3.103472 -0.100077 -0.817906
2.998812 0.015442 -0.820224
2.846651 0.121850 -0.809429
2.760749 0.222854 -0.818013
25.062470 1.975650 -0.701352
12.627800 0.991224 -0.817561
11.147315 -0.346375 -0.809023
9.636416 0.052012 -0.791422
8.533903 0.354879 -0.781977
7.683046 0.600385 -0.781572
7.204327 -0.228765 -0.788890
6.575573 0.031704 -0.782120
6.070778 0.250647 -0.781473
5.611310 0.436718 -0.779486
5.353837 -0.172717 -0.786126
5.008129 0.021262 -0.782916
4.723362 0.192538 -0.784886
4.462534 0.346840 -0.788997
4.310814 -0.142082 -0.796048
4.111083 0.014871 -0.798821
3.907086 0.156669 -0.798885
3.725613 0.289761 -0.802206
3.602148 -0.122879 -0.804785
3.439803 0.009861 -0.801673
3.327094 0.133063 -0.810598
3.205167 0.248270 -0.817164
3.114747 -0.110008 -0.820963
3.018137 0.006282 -0.825501
2.863351 0.113765 -0.814074
2.780543 0.215867 -0.823678
25.206962 1.909244 -0.705228
12.653668 0.954203 -0.819043
11.154174 -0.380845 -0.809601
7.646236 0.017812 -0.627965
8.527986 0.328427 -0.781339
7.687828 0.577034 -0.781874
7.207564 -0.251005 -0.789326
6.578619 0.011536 -0.782474
6.077465 0.232248 -0.782239
5.614599 0.419648 -0.779761
5.355259 -0.189212 -0.786416
5.013110 0.005903 -0.783688
4.723930 0.178046 -0.784886
4.462595 0.333075 -0.788823
4.310358 -0.155306 -0.796048
4.116999 0.002261 -0.799965
3.905590 0.144609 -0.798485
3.743059 0.279568 -0.805774
3.611507 -0.134292 -0.806964
3.462217 -0.000697 -0.806894
3.315835 0.122425 -0.807760
3.202047 0.238148 -0.816178
3.098934 -0.118969 -0.816887
3.028752 -0.002988 -0.828403
2.869455 0.105191 -0.815714
2.773541 0.206765 -0.821412
25.228653 1.833061 -0.705674
12.665494 0.916026 -0.819622
11.164913 -0.415509 -0.810470
7.645258 -0.005646 -0.627883
8.538906 0.302615 -0.782251
7.692539 0.553660 -0.782177
7.212721 -0.273342 -0.789978
6.586567 -0.008658 -0.783419
6.078150 0.213601 -0.782239
5.623764 0.402987 -0.780858
5.359597 -0.205831 -0.787142
5.024961 -0.009499 -0.785542
4.739243 0.164064 -0.787343
4.475383 0.320225 -0.790906
4.305930 -0.168376 -0.795322
4.104226 -0.010337 -0.797486
3.903077 0.132526 -0.797884
3.740973 0.267873 -0.805144
3.606202 -0.145175 -0.805875
3.469990 -0.011344 -0.808709
3.305513 0.111890 -0.805158
3.203730 0.228392 -0.816425
3.110148 -0.128957 -0.819944
3.028729 -0.012280 -0.828403
2.888030 0.097001 -0.820906
2.771293 0.198050 -0.820562
25.161362 1.750587 -0.703638
12.674218 0.877578 -0.820009
11.187504 -0.450724 -0.812206
7.587400 -0.028881 -0.623136
8.146645 0.263691 -0.746238
7.695195 0.530126 -0.782278
7.215821 -0.295632 -0.790414
6.592468 -0.028891 -0.784128
6.072828 0.194762 -0.781473
5.622009 0.385528 -0.780447
5.367838 -0.222642 -0.788449
5.033800 -0.024960 -0.786932
4.753528 0.149959 -0.789636
4.496978 0.307906 -0.794552
4.310306 -0.181793 -0.796230
4.106138 -0.022940 -0.797867
3.901507 0.120490 -0.797484
3.754458 0.257264 -0.807873
3.627191 -0.157167 -0.810669
3.495260 -0.022150 -0.814611
3.316524 0.102077 -0.807760
3.214085 0.219222 -0.818888
3.118433 -0.138885 -0.822236
3.003599 -0.021394 -0.821543
2.888315 0.088140 -0.820906
2.769017 0.189351 -0.819712
25.447885 1.692087 -0.711502
12.739583 0.842840 -0.824067
11.184075 -0.484958 -0.812061
9.686159 -0.066588 -0.795515
7.350094 0.215337 -0.673210
7.688843 0.505992 -0.781471
7.219845 -0.317987 -0.790958
6.596320 -0.049146 -0.784600
6.074389 0.176159 -0.781601
5.624154 0.368343 -0.780584
5.368118 -0.239153 -0.788594
5.035676 -0.040419 -0.787240
4.760868 0.135571 -0.790782
4.494953 0.293916 -0.794031
4.311693 -0.195105 -0.796593
4.131570 -0.035758 -0.802827
3.906755 0.108656 -0.798485
3.755230 0.245744 -0.807873
3.629616 -0.168430 -0.811323
3.498097 -0.032901 -0.815292
3.313908 0.091821 -0.807050
3.207005 0.208856 -0.816917
3.141174 -0.149556 -0.828350
3.015093 -0.030726 -0.824709
2.852032 0.078276 -0.810522
2.789682 0.182167 -0.825661
25.287353 1.603505 -0.706873
12.704263 0.801364 -0.821619
11.096853 -0.515289 -0.805839
9.695875 -0.096403 -0.796334
7.347733 0.192708 -0.672936
7.703267 0.483210 -0.782782
7.224794 -0.340416 -0.791610
6.601103 -0.069435 -0.785191
6.076883 0.157573 -0.781856
5.620315 0.350778 -0.779898
5.370323 -0.255762 -0.789030
5.037504 -0.055890 -0.787549
4.764221 0.121040 -0.791274
4.492885 0.279940 -0.793510
4.315003 -0.208522 -0.797319
4.118680 -0.048284 -0.800347
3.928619 0.097203 -0.802889
3.754015 0.234100 -0.807453
3.619335 -0.179083 -0.809144
3.489215 -0.043524 -0.813249
3.310288 0.081557 -0.806104
3.230846 0.200457 -0.822830
3.118488 -0.158066 -0.822491
3.001482 -0.039797 -0.821016
2.870530 0.069971 -0.815714
2.782570 0.173131 -0.823395
25.315102 1.527301 -0.707515
12.811255 0.768660 -0.828382
11.184874 -0.553771 -0.812351
9.700517 -0.126214 -0.796743
7.357250 0.170372 -0.673757
7.701734 0.459397 -0.782480
7.226694 -0.362730 -0.791937
6.607809 -0.089781 -0.786018
6.082296 0.139042 -0.782494
5.624331 0.333710 -0.780310
5.375442 -0.272537 -0.789901
5.040272 -0.071386 -0.788013
4.770487 0.106555 -0.792256
4.492740 0.266097 -0.793337
4.298630 -0.220951 -0.794415
4.117531 -0.060905 -0.800156
3.946530 0.085532 -0.806492
3.761547 0.222987 -0.808922
3.631439 -0.190852 -0.811977
3.486144 -0.054183 -0.812568
3.361035 0.072491 -0.818404
3.224674 0.190144 -0.821105
3.135369 -0.168567 -0.827076
3.016777 -0.049258 -0.825237
2.850535 0.060734 -0.809975
2.791704 0.165103 -0.825944
25.310688 1.449114 -0.707264
12.828498 0.730203 -0.829348
11.193082 -0.588606 -0.813074
9.736955 -0.156567 -0.799771
7.393581 0.148519 -0.677039
7.705093 0.435878 -0.782681
7.227533 -0.385005 -0.792154
6.615445 -0.110186 -0.786963
6.095586 0.120637 -0.784152
5.637196 0.317121 -0.781956
5.378533 -0.289240 -0.790482
5.039042 -0.086832 -0.787858
4.764874 0.091805 -0.791274
4.496485 0.252477 -0.793857
4.301859 -0.234352 -0.795141
4.117325 -0.073537 -0.800156
3.946774 0.073424 -0.806492
3.761237 0.211391 -0.808712
3.619142 -0.201342 -0.809362
3.478171 -0.064733 -0.810752
3.348613 0.061945 -0.815329
3.221371 0.180034 -0.820120
3.122286 -0.177472 -0.823765
3.023362 -0.058644 -0.827084
2.862249 0.052199 -0.813254
2.787410 0.156269 -0.824528
25.341964 1.372915 -0.708017
12.841639 0.691432 -0.830057
11.207157 -0.623830 -0.814232
9.743404 -0.186573 -0.800344
8.515149 0.144916 -0.779698
7.710368 0.412450 -0.783085
7.219370 -0.406785 -0.791393
6.627983 -0.130735 -0.788498
6.098902 0.101985 -0.784535
5.655947 0.300771 -0.784425
5.394413 -0.306695 -0.792950
5.044678 -0.102412 -0.788785
4.759214 0.077090 -0.790291
4.505105 0.239099 -0.795246
4.306029 -0.247832 -0.796048
4.113155 -0.086086 -0.799393
3.936204 0.061148 -0.804290
3.765774 0.200058 -0.809552
3.621431 -0.212616 -0.810015
3.489640 -0.075657 -0.813476
3.347816 0.051657 -0.815092
3.223844 0.170252 -0.820613
3.124623 -0.187224 -0.824529
3.021239 -0.067876 -0.826556
2.882594 0.043723 -0.818993
2.801284 0.148427 -0.828493
25.461860 1.301078 -0.711251
12.864630 0.653094 -0.831409
11.239043 -0.660199 -0.816692
9.736808 -0.216331 -0.799853
8.534473 0.119055 -0.781430
7.716566 0.389044 -0.783590
7.217095 -0.428873 -0.791284
6.636485 -0.151273 -0.789561
6.103153 0.083327 -0.785045
5.668715 0.284012 -0.786071
5.399372 -0.323598 -0.793822
5.052242 -0.118073 -0.790021
4.747592 0.062333 -0.788325
4.504834 0.225227 -0.795072
4.319972 -0.261934 -0.798771
4.108946 -0.098611 -0.798630
3.941272 0.049132 -0.805291
3.752699 0.187820 -0.806613
3.617839 -0.223544 -0.809362
3.493286 -0.086459 -0.814384
3.338243 0.041265 -0.812727
3.223383 0.160313 -0.820366
3.124034 -0.196809 -0.824529
2.992089 -0.076406 -0.818641
2.863477 0.034647 -0.813528
2.785443 0.139019 -0.823678
25.630478 1.230868 -0.715853
12.891492 0.614811 -0.833020
11.241942 -0.694985 -0.817054
9.749051 -0.246530 -0.800917
8.583591 0.093402 -0.785897
7.720704 0.365509 -0.783892
7.218722 -0.451199 -0.791610
6.640953 -0.171761 -0.790152
6.105364 0.064624 -0.785300
5.665602 0.266434 -0.785523
5.409216 -0.340846 -0.795419
5.056794 -0.133703 -0.790793
4.747760 0.047768 -0.788325
4.505504 0.211405 -0.795072
4.324055 -0.275499 -0.799678
4.122362 -0.111588 -0.801301
3.928667 0.036921 -0.802689
3.743491 0.175847 -0.804514
3.622979 -0.235022 -0.810669
3.494951 -0.097230 -0.814838
3.340297 0.031042 -0.813200
3.217083 0.150107 -0.818642
3.112801 -0.205691 -0.821727
3.000518 -0.085833 -0.821016
2.862608 0.025853 -0.813254
2.796394 0.130967 -0.826794
25.621152 1.151645 -0.715490
12.907275 0.575880 -0.833921
11.227814 -0.728696 -0.816185
9.745260 -0.276354 -0.800672
8.593795 0.067145 -0.786809
7.726759 0.342040 -0.784397
7.240118 -0.474840 -0.794113
6.629476 -0.191818 -0.788852
6.103550 0.045877 -0.785045
5.671340 0.249268 -0.786209
5.408145 -0.357440 -0.795419
5.073149 -0.149712 -0.793419
4.762682 0.033305 -0.790782
4.514003 0.197927 -0.796461
4.338888 -0.289812 -0.802582
4.123962 -0.124294 -0.801682
3.929742 0.024874 -0.802889
3.749873 0.164618 -0.805774
3.643663 -0.247591 -0.815463
3.485876 -0.107681 -0.812795
3.334547 0.020757 -0.811781
3.224306 0.140531 -0.820366
3.101544 -0.214506 -0.818925
3.018558 -0.095618 -0.826028
2.877103 0.017156 -0.817353
2.783369 0.121800 -0.822828
25.694476 1.075963 -0.717442
12.926928 0.537024 -0.835081
11.248412 -0.764695 -0.817849
9.762296 -0.306814 -0.802145
7.710665 0.036588 -0.705940
7.722802 0.318129 -0.783892
7.239619 -0.497118 -0.794222
6.624887 -0.212029 -0.788380
6.100686 0.027139 -0.784662
5.664161 0.231544 -0.785111
5.411958 -0.374372 -0.796145
5.039092 -0.164181 -0.788167
4.757829 0.018674 -0.789963
4.520492 0.184318 -0.797503
4.335036 -0.302917 -0.802038
4.126505 -0.137043 -0.802254
3.913144 0.012763 -0.799486
3.709331 0.151438 -0.796958
3.656516 -0.259737 -0.818514
3.475796 -0.118045 -0.810525
3.358886 0.010604 -0.817694
3.224722 0.130639 -0.820366
3.103765 -0.224230 -0.819689
2.989331 -0.103874 -0.818114
2.847322 0.008243 -0.808882
2.796187 0.113767 -0.826510
25.651710 0.995345 -0.716160
12.936492 0.497669 -0.835596
11.252978 -0.799696 -0.818356
9.770274 -0.337072 -0.802882
7.655970 0.012840 -0.700926
7.723741 0.294434 -0.783892
7.245001 -0.519825 -0.794983
6.620235 -0.232214 -0.787907
6.097765 0.008418 -0.784280
5.656926 0.213866 -0.784014
5.413744 -0.391187 -0.796580
5.045476 -0.179887 -0.789248
4.759837 0.004078 -0.790291
4.512180 0.170114 -0.795940
4.325259 -0.315571 -0.800404
4.123122 -0.149596 -0.801682
3.931780 0.000761 -0.803289
3.738111 0.141127 -0.803045
3.655702 -0.270954 -0.818514
3.480283 -0.128888 -0.811660
3.352101 0.000298 -0.816039
3.235761 0.121144 -0.823076
3.106919 -0.234042 -0.820708
2.982251 -0.112789 -0.816267
2.874268 -0.000497 -0.816534
2.796523 0.105188 -0.826510
25.714580 0.918784 -0.717833
12.952918 0.458508 -0.836562
11.247487 -0.833994 -0.818139
9.780148 -0.367457 -0.803782
7.651990 -0.010642 -0.700561
7.735545 0.271120 -0.785002
7.243372 -0.542049 -0.794983
6.623461 -0.252675 -0.788380
6.098754 -0.010292 -0.784407
5.654585 0.196406 -0.783602
5.410546 -0.407646 -0.796290
5.049837 -0.195556 -0.790021
4.742070 -0.010485 -0.787343
4.500870 0.155861 -0.793857
4.305640 -0.327422 -0.796956
4.119701 -0.162129 -0.801110
3.943521 -0.011335 -0.805691
3.751230 0.130099 -0.805774
3.637338 -0.280816 -0.814592
3.480845 -0.139604 -0.811887
3.352086 -0.009986 -0.816039
3.236118 0.111216 -0.823076
3.109079 -0.243799 -0.821472
2.983819 -0.122017 -0.816795
2.878101 -0.009328 -0.817627
2.795874 0.096575 -0.826227
25.724272 0.840117 -0.718028
12.956258 0.418831 -0.836691
11.262775 -0.869880 -0.819441
9.775988 -0.397339 -0.803537
7.643955 -0.034083 -0.699832
7.758218 0.248086 -0.787222
7.229782 -0.563343 -0.793678
6.630592 -0.273321 -0.789325
6.129440 -0.029149 -0.788362
5.667042 0.179434 -0.785248
5.406311 -0.424011 -0.795854
5.047239 -0.210966 -0.789712
4.777529 -0.025221 -0.793239
4.502311 0.142083 -0.794031
4.310497 -0.341096 -0.798045
4.122127 -0.174892 -0.801682
3.946407 -0.023451 -0.806292
3.751611 0.118589 -0.805774
3.624785 -0.291036 -0.811977
3.480400 -0.150282 -0.811887
3.327750 -0.020123 -0.810125
3.252912 0.101802 -0.827264
3.111208 -0.253572 -0.822236
2.987285 -0.131340 -0.817850
2.872287 -0.018121 -0.815987
2.805743 0.088298 -0.829059
12.987407 0.379956 -0.838623
11.287890 -0.906665 -0.821467
9.764766 -0.426894 -0.802718
8.632651 -0.064977 -0.790365
7.764909 0.224455 -0.787827
7.226038 -0.585360 -0.793460
6.634683 -0.293882 -0.789915
6.133289 -0.047984 -0.788872
5.676477 0.162301 -0.786483
5.396109 -0.439872 -0.794548
5.058412 -0.226981 -0.791565
4.764605 -0.039771 -0.791110
4.502726 0.128270 -0.794031
4.311391 -0.354480 -0.798408
4.113726 -0.187181 -0.800156
3.936519 -0.035470 -0.804290
3.756844 0.107219 -0.806823
3.627766 -0.302480 -0.812848
3.461438 -0.160104 -0.807574
3.331558 -0.030368 -0.811071
3.228020 0.091111 -0.820859
3.098852 -0.262138 -0.819180
2.985904 -0.140459 -0.817586
2.897227 -0.027167 -0.823092
2.801207 0.079554 -0.827643
13.010459 0.340684 -0.840040
11.299965 -0.942535 -0.822552
9.770379 -0.457176 -0.803291
8.637390 -0.091514 -0.790821
7.757605 0.200426 -0.787020
7.257887 -0.610359 -0.797159
6.633749 -0.314236 -0.789915
6.126171 -0.066725 -0.787979
5.687841 0.145163 -0.787992
5.407550 -0.457509 -0.796435
5.056705 -0.242451 -0.791411
4.765447 -0.054400 -0.791274
4.507036 0.114555 -0.794725
4.306364 -0.367371 -0.797682
4.127839 -0.200515 -0.803017
3.944229 -0.047642 -0.805891
3.743471 0.095344 -0.803885
3.626821 -0.313608 -0.812848
3.461904 -0.170771 -0.807801
3.315905 -0.040399 -0.807287
3.225378 0.081134 -0.820120
3.100923 -0.271897 -0.819944
2.972936 -0.148991 -0.814156
2.908673 -0.036200 -0.826371
2.804314 0.071032 -0.828493
11.306957 -0.978058 -0.823276
9.804766 -0.488936 -0.806238
8.647026 -0.118149 -0.791732
7.767135 0.176829 -0.787928
7.219339 -0.629428 -0.793134
6.629779 -0.334436 -0.789561
6.123954 -0.085492 -0.787724
5.686279 0.127668 -0.787718
5.403164 -0.473838 -0.796000
5.066791 -0.258518 -0.793110
4.765258 -0.069020 -0.791274
4.497520 0.100507 -0.792989
4.305216 -0.380581 -0.797682
4.108579 -0.212216 -0.799393
3.929370 -0.059520 -0.802889
3.748634 0.083968 -0.804934
3.626813 -0.324821 -0.813066
3.480815 -0.182410 -0.812341
3.323537 -0.050691 -0.809179
3.211077 0.070918 -0.816425
3.111631 -0.282459 -0.823001
2.980170 -0.158521 -0.816267
2.893159 -0.044884 -0.821999
2.803560 0.062407 -0.828210
11.307876 -1.013099 -0.823565
9.830091 -0.520437 -0.808448
8.661558 -0.144927 -0.793100
7.761673 0.152881 -0.787323
7.236185 -0.653272 -0.795201
6.631696 -0.354934 -0.789915
6.120687 -0.104229 -0.787341
5.680702 0.110107 -0.786894
5.397744 -0.490055 -0.795419
5.065974 -0.274061 -0.793110
4.756147 -0.083483 -0.789799
4.524393 0.087221 -0.797676
4.315780 -0.394863 -0.799860
4.105948 -0.224713 -0.799012
3.929169 -0.071574 -0.802889
3.750829 0.072505 -0.805354
3.615110 -0.334956 -0.810669
3.481211 -0.193142 -0.812568
3.318509 -0.060798 -0.807996
3.207404 0.060992 -0.815439
3.101122 -0.291100 -0.820453
3.004709 -0.169073 -0.823126
2.880504 -0.053528 -0.818446
2.799903 0.053732 -0.827077
11.319612 -1.049167 -0.824650
9.839394 -0.551206 -0.809348
8.666051 -0.171598 -0.793556
7.761110 0.129052 -0.787222
7.238106 -0.675839 -0.795636
6.641482 -0.375895 -0.791214
6.125297 -0.123106 -0.787979
5.676061 0.092598 -0.786209
5.394245 -0.506428 -0.795128
5.058205 -0.289207 -0.792029
4.758827 -0.098136 -0.790291
4.508884 0.073084 -0.794899
4.318464 -0.408472 -0.800586
4.113079 -0.237762 -0.800538
3.921094 -0.083462 -0.801287
3.756899 0.061092 -0.806613
3.618923 -0.346510 -0.811759
3.473796 -0.203423 -0.810979
3.353277 -0.071727 -0.816512
3.197885 0.050997 -0.812976
3.083852 -0.299026 -0.816123
3.006102 -0.178405 -0.823654
2.884173 -0.062448 -0.819540
2.802932 0.045188 -0.827926
11.330239 -1.085222 -0.825663
9.847605 -0.581978 -0.810166
8.663493 -0.198139 -0.793373
7.763459 0.105267 -0.787424
7.240946 -0.698519 -0.796180
6.659131 -0.397393 -0.793459
6.127865 -0.141967 -0.788362
5.690184 0.075367 -0.788129
5.391681 -0.522879 -0.794983
5.077018 -0.305913 -0.795118
4.779214 -0.113226 -0.793730
4.530751 0.059536 -0.798718
4.321106 -0.422101 -0.801312
4.109390 -0.250200 -0.799965
3.946286 -0.096111 -0.806492
3.757069 0.049566 -0.806613
3.615900 -0.357420 -0.811323
3.462463 -0.213421 -0.808482
3.345271 -0.081824 -0.814619
3.211594 0.041361 -0.816425
3.088693 -0.309063 -0.817652
3.018056 -0.188408 -0.827084
2.887815 -0.071391 -0.820633
2.787714 0.036388 -0.823395
11.332811 -1.120566 -0.826097
9.842789 -0.612002 -0.809921
8.661848 -0.224691 -0.793282
7.765735 0.081470 -0.787626
7.241736 -0.721026 -0.796506
6.669773 -0.418567 -0.794876
6.130375 -0.160844 -0.788745
5.702275 0.058030 -0.789775
5.394974 -0.539911 -0.795709
5.084930 -0.322050 -0.796508
4.780816 -0.127940 -0.794058
4.530912 0.045635 -0.798718
4.321747 -0.435553 -0.801675
4.108604 -0.262807 -0.799965
3.945973 -0.108218 -0.806492
3.770891 0.038178 -0.809552
3.597310 -0.366730 -0.807400
3.455961 -0.223665 -0.807121
3.329464 -0.091659 -0.810835
3.214613 0.031536 -0.817164
3.100235 -0.319828 -0.820963
3.018426 -0.197729 -0.827348
2.886621 -0.080224 -0.820359
2.809869 0.028056 -0.829909
26.376871 0.213743 -0.735875
11.330313 -1.155430 -0.826170
9.858768 -0.643364 -0.811394
8.643200 -0.250744 -0.791641
7.758985 0.057593 -0.786919
7.249378 -0.744255 -0.797594
6.673412 -0.439354 -0.795466
6.138775 -0.179913 -0.789893
5.689549 0.040444 -0.787992
5.385419 -0.555647 -0.794548
5.087861 -0.337910 -0.797125
4.764625 -0.142136 -0.791437
4.519214 0.031652 -0.796635
4.332128 -0.450029 -0.803853
4.119531 -0.276199 -0.802254
3.942684 -0.120234 -0.805891
3.749481 0.026457 -0.804934
3.619463 -0.380211 -0.812630
3.467890 -0.235123 -0.810071
3.351504 -0.102557 -0.816275
3.224386 0.021739 -0.819627
3.108856 -0.330360 -0.823510
2.998559 -0.205668 -0.822071
2.889245 -0.089169 -0.821179
2.774458 0.019190 -0.819429
11.341594 -1.191749 -0.827255
9.858735 -0.673743 -0.811558
8.666279 -0.278027 -0.793829
7.592979 0.033065 -0.770069
7.254970 -0.767329 -0.798465
6.679958 -0.460372 -0.796411
6.156038 -0.199323 -0.792189
5.696580 0.023017 -0.788952
5.381721 -0.571958 -0.794257
5.080887 -0.353107 -0.796199
4.767124 -0.156851 -0.791929
4.530122 0.017829 -0.798544
4.334639 -0.463737 -0.804579
4.106914 -0.288012 -0.799965
3.935442 -0.132099 -0.804490
3.748567 0.014950 -0.804724
3.600814 -0.389425 -0.808708
3.471038 -0.246037 -0.810979
3.323012 -0.111890 -0.809416
3.198270 0.011750 -0.812976
3.108789 -0.340001 -0.823765
3.017156 -0.216246 -0.827348
2.915877 -0.098946 -0.828831
2.778340 0.010692 -0.820562
11.336892 -1.226432 -0.827183
9.859605 -0.704199 -0.811804
8.674342 -0.304928 -0.794650
7.601004 0.009780 -0.770876
7.261475 -0.790552 -0.799444
6.674552 -0.480578 -0.795939
6.170266 -0.218736 -0.794102
5.693652 0.005537 -0.788541
5.377974 -0.588251 -0.793967
5.087662 -0.369265 -0.797434
4.773521 -0.171724 -0.793075
4.529171 0.003930 -0.798371
4.334173 -0.477141 -0.804760
4.138318 -0.302976 -0.806260
3.944810 -0.144531 -0.806492
3.743706 0.003445 -0.803675
3.600572 -0.400578 -0.808926
3.462497 -0.256110 -0.809163
3.322653 -0.122085 -0.809416
3.200230 0.001939 -0.813468
3.125028 -0.351483 -0.828350
3.016478 -0.225501 -0.827348
2.897295 -0.107215 -0.823639
2.783155 0.002172 -0.821978
11.349927 -1.263083 -0.828413
9.885227 -0.736518 -0.814095
8.681327 -0.331843 -0.795379
7.617911 -0.013570 -0.772591
7.267907 -0.813821 -0.800423
6.681958 -0.501723 -0.797002
6.174521 -0.237855 -0.794740
5.694633 -0.011933 -0.788678
5.383026 -0.605522 -0.794983
5.083550 -0.384649 -0.796971
4.759172 -0.185829 -0.790782
4.534086 -0.009976 -0.799239
4.334643 -0.490657 -0.805123
4.160861 -0.317463 -0.810838
3.938474 -0.156400 -0.805291
3.745655 -0.008045 -0.804095
3.603205 -0.412066 -0.809797
3.453927 -0.266133 -0.807348
3.312555 -0.131891 -0.807050
3.233172 -0.007960 -0.821845
3.132581 -0.362068 -0.830642
2.959034 -0.230338 -0.811782
2.895030 -0.116027 -0.823092
2.815756 -0.006441 -0.831609
11.383654 -1.302205 -0.831162
9.891863 -0.767536 -0.814832
8.692207 -0.358969 -0.796473
7.614849 -0.036927 -0.772289
7.277226 -0.837479 -0.801729
6.678408 -0.522065 -0.796766
6.167817 -0.256550 -0.793975
5.695560 -0.029409 -0.788815
5.389989 -0.623056 -0.796290
5.092196 -0.401019 -0.798515
4.763507 -0.200637 -0.791601
4.535019 -0.023891 -0.799412
4.334094 -0.504066 -0.805305
4.168674 -0.330926 -0.812554
3.900779 -0.166891 -0.797684
3.743657 -0.019526 -0.803675
3.622279 -0.425510 -0.814374
3.464744 -0.277662 -0.810071
3.320871 -0.142428 -0.809179
3.226349 -0.017842 -0.820120
3.102647 -0.368257 -0.823001
3.015038 -0.244006 -0.827348
2.907154 -0.125447 -0.826645
2.798460 -0.014987 -0.826510
11.388520 -1.338171 -0.831813
9.878534 -0.796999 -0.813932
8.701013 -0.386076 -0.797385
7.706227 -0.061013 -0.781572
7.282520 -0.860735 -0.802599
6.679744 -0.542793 -0.797120
6.168982 -0.275560 -0.794230
5.701386 -0.046932 -0.789638
5.386087 -0.639356 -0.796000
5.087987 -0.416398 -0.798052
4.784550 -0.216230 -0.795205
4.537878 -0.037829 -0.799933
4.315928 -0.515379 -0.802219
4.138290 -0.341293 -0.806832
3.923738 -0.179934 -0.802488
3.752378 -0.031085 -0.805564
3.615143 -0.435920 -0.813066
3.474552 -0.289179 -0.812568
3.334977 -0.153285 -0.812727
3.211742 -0.027615 -0.816425
3.106302 -0.378359 -0.824274
2.989284 -0.251155 -0.820488
2.875046 -0.132900 -0.817627
2.818541 -0.023742 -0.832458
11.394263 -1.374299 -0.832537
9.872070 -0.826969 -0.813604
8.709736 -0.413240 -0.798297
7.805487 -0.085748 -0.791662
7.278858 -0.882953 -0.802490
6.662215 -0.561949 -0.795230
6.169098 -0.294532 -0.794357
5.698244 -0.064389 -0.789227
5.387046 -0.656236 -0.796435
5.090624 -0.432340 -0.798670
4.772040 -0.230337 -0.793239
4.543649 -0.051818 -0.800975
4.326039 -0.530052 -0.804397
4.116684 -0.352230 -0.802827
3.920231 -0.191828 -0.801888
3.736623 -0.042419 -0.802206
3.626380 -0.448567 -0.815899
3.488202 -0.301093 -0.815973
3.302466 -0.161945 -0.804921
3.227147 -0.037649 -0.820366
3.103208 -0.387647 -0.823765
2.987539 -0.260241 -0.820224
2.883271 -0.142146 -0.820086
2.838593 -0.032621 -0.838407
11.397912 -1.410229 -0.833115
9.869486 -0.857252 -0.813604
8.710416 -0.440060 -0.798479
7.802203 -0.109653 -0.791359
7.280061 -0.905771 -0.802925
6.665406 -0.582818 -0.795821
6.166185 -0.313357 -0.794102
5.706934 -0.081999 -0.790461
5.393844 -0.673864 -0.797742
5.083368 -0.447436 -0.797743
4.774267 -0.245128 -0.793730
4.545439 -0.065786 -0.801322
4.314635 -0.542096 -0.802582
4.102872 -0.363731 -0.800347
3.925495 -0.204159 -0.803089
3.741363 -0.053953 -0.803255
3.632733 -0.460672 -0.817643
3.491143 -0.312140 -0.816880
3.298073 -0.171874 -0.803975
3.214419 -0.047364 -0.817164
3.083779 -0.394833 -0.818925
2.957906 -0.266806 -0.812310
2.885704 -0.151142 -0.820906
2.808752 -0.040896 -0.829626
9.870781 -0.887885 -0.813932
8.718969 -0.467314 -0.799391
7.825704 -0.133998 -0.793780
7.286123 -0.929234 -0.803905
6.667543 -0.603622 -0.796293
6.165194 -0.332273 -0.794102
5.711607 -0.099594 -0.791147
5.398620 -0.691289 -0.798758
5.083940 -0.463209 -0.798052
4.783342 -0.260310 -0.795368
4.553093 -0.079869 -0.802711
4.305149 -0.554326 -0.801130
4.099782 -0.376138 -0.799965
3.931698 -0.216579 -0.804490
3.725539 -0.065158 -0.799897
3.632270 -0.471941 -0.817861
3.477562 -0.321683 -0.813930
3.336336 -0.184134 -0.813437
3.211351 -0.057174 -0.816425
3.119947 -0.409196 -0.828859
2.970519 -0.277134 -0.816003
2.907317 -0.161219 -0.827191
2.795189 -0.049277 -0.825661
26.724515 -0.521419 -0.745692
9.872972 -0.918625 -0.814341
8.723460 -0.494399 -0.799938
7.832219 -0.158147 -0.794487
7.294080 -0.953000 -0.805101
6.669614 -0.624445 -0.796766
6.161175 -0.351017 -0.793720
5.708304 -0.117055 -0.790736
5.407265 -0.709264 -0.800356
5.090364 -0.479545 -0.799288
4.791385 -0.275493 -0.796843
4.556765 -0.093919 -0.803405
4.296603 -0.566631 -0.799860
4.079063 -0.386860 -0.796151
3.943731 -0.229380 -0.807092
3.758557 -0.077270 -0.807033
3.654024 -0.486172 -0.823091
3.473650 -0.332073 -0.813249
3.343515 -0.194821 -0.815329
3.234416 -0.067511 -0.822337
3.111009 -0.417736 -0.826821
2.968695 -0.286154 -0.815739
2.898166 -0.169632 -0.824732
2.803654 -0.058031 -0.828210
26.903672 -0.607491 -0.750739
9.879036 -0.949769 -0.815078
8.724884 -0.521338 -0.800211
7.840649 -0.182383 -0.795395
7.306886 -0.977482 -0.806842
6.672608 -0.645383 -0.797356
6.160069 -0.369917 -0.793720
5.704947 -0.134497 -0.790324
5.413889 -0.727035 -0.801662
5.087885 -0.495064 -0.799133
4.790517 -0.290192 -0.796843
4.553501 -0.107829 -0.802884
4.286074 -0.578626 -0.798226
4.085673 -0.400138 -0.797677
3.951810 -0.242017 -0.808894
3.734844 -0.088247 -0.801996
3.626405 -0.493824 -0.817207
3.465830 -0.342059 -0.811660
3.351630 -0.205613 -0.817458
3.227411 -0.077272 -0.820613
3.102049 -0.426226 -0.824784
2.969723 -0.295451 -0.816267
2.894752 -0.178345 -0.823912
2.807298 -0.066723 -0.829343
26.905678 -0.690130 -0.750851
9.903845 -0.982829 -0.817369
8.718274 -0.547791 -0.799755
7.848009 -0.206647 -0.796202
7.297944 -0.999086 -0.806189
6.677514 -0.666541 -0.798183
6.161875 -0.389002 -0.794102
5.709458 -0.152131 -0.791010
5.408693 -0.743237 -0.801227
5.076512 -0.509684 -0.797589
4.786651 -0.304700 -0.796351
4.542320 -0.121508 -0.800975
4.318374 -0.596483 -0.804579
4.100053 -0.414250 -0.800728
3.954960 -0.254391 -0.809695
3.766809 -0.100566 -0.808922
3.629706 -0.505621 -0.818296
3.486080 -0.354860 -0.816653
3.347105 -0.215645 -0.816512
3.224253 -0.087094 -0.819874
3.114133 -0.437625 -0.828350
2.965924 -0.304265 -0.815476
2.870192 -0.185673 -0.817080
2.797493 -0.075078 -0.826510
26.766546 -0.768740 -0.747030
9.937467 -1.016963 -0.820398
8.741394 -0.576173 -0.802035
7.850321 -0.230811 -0.796505
7.296813 -1.021747 -0.806407
6.694205 -0.688956 -0.800427
6.163621 -0.408101 -0.794485
5.715896 -0.169853 -0.791970
5.397569 -0.758588 -0.799920
5.069028 -0.524646 -0.796662
4.779788 -0.318989 -0.795368
4.537988 -0.135326 -0.800280
4.283417 -0.605052 -0.798408
4.114385 -0.428453 -0.803780
3.952205 -0.266392 -0.809294
3.759641 -0.111918 -0.807453
3.632002 -0.517305 -0.819168
3.483038 -0.365350 -0.816200
3.359999 -0.226829 -0.819823
3.213314 -0.096665 -0.817164
3.106076 -0.446214 -0.826567
2.976487 -0.314580 -0.818641
2.892643 -0.196039 -0.823639
2.811629 -0.084090 -0.830759
26.938904 -0.856414 -0.751910
9.942230 -1.048282 -0.821053
8.740579 -0.603057 -0.802126
7.851565 -0.254959 -0.796707
7.304469 -1.045678 -0.807604
6.699960 -0.710328 -0.801372
6.170256 -0.427557 -0.795506
5.717327 -0.187453 -0.792245
5.404031 -0.776410 -0.801227
5.064447 -0.539881 -0.796199
4.771898 -0.333171 -0.794222
4.541489 -0.149377 -0.800975
4.324365 -0.624374 -0.806394
4.128667 -0.442749 -0.806832
3.952347 -0.278585 -0.809494
3.772961 -0.123901 -0.810391
3.592732 -0.522962 -0.810669
3.474154 -0.375198 -0.814384
3.359287 -0.237136 -0.819823
3.211065 -0.106459 -0.816671
3.108519 -0.456303 -0.827586
2.975508 -0.323710 -0.818641
2.875716 -0.203757 -0.818993
2.825736 -0.093190 -0.835008
26.967119 -0.940137 -0.752775
9.929059 -1.077704 -0.820234
8.749614 -0.630658 -0.803129
7.858700 -0.279329 -0.797514
7.287456 -1.066068 -0.806081
6.705646 -0.731741 -0.802317
6.182765 -0.447488 -0.797291
5.715736 -0.204957 -0.792108
5.390855 -0.791405 -0.799630
5.068659 -0.556062 -0.797125
4.772821 -0.347953 -0.794549
4.522310 -0.162637 -0.797676
4.329239 -0.638642 -0.807664
4.135095 -0.456275 -0.808358
3.938771 -0.289774 -0.806892
3.780380 -0.135757 -0.812071
3.604626 -0.535992 -0.813720
3.475891 -0.386177 -0.815065
3.346916 -0.246584 -0.816985
3.213629 -0.116415 -0.817410
3.107104 -0.465838 -0.827586
2.994631 -0.335090 -0.824182
2.872200 -0.212365 -0.818173
2.816811 -0.101548 -0.832458
9.952449 -1.111147 -0.822444
8.750616 -0.657722 -0.803402
7.860788 -0.303553 -0.797816
7.271370 -1.086511 -0.804666
6.688568 -0.750649 -0.800545
6.183341 -0.466603 -0.797547
5.714090 -0.222453 -0.791970
5.396230 -0.809114 -0.800791
5.058094 -0.570614 -0.795735
4.773699 -0.362744 -0.794877
4.535566 -0.177048 -0.800107
4.311701 -0.649577 -0.804760
4.130750 -0.468627 -0.807786
3.932979 -0.301483 -0.805891
3.776038 -0.147202 -0.811231
3.596210 -0.546023 -0.812195
3.461143 -0.395292 -0.811887
3.308362 -0.253951 -0.807760
3.212288 -0.126236 -0.817164
3.106617 -0.475514 -0.827840
2.982090 -0.342953 -0.821016
2.861943 -0.220438 -0.815440
2.815527 -0.110152 -0.832175
9.946022 -1.141334 -0.822199
8.745579 -0.684333 -0.803129
7.862803 -0.327792 -0.798119
7.274882 -1.109863 -0.805428
6.690179 -0.771621 -0.801018
6.184847 -0.485804 -0.797929
5.721298 -0.240315 -0.793068
5.400568 -0.826713 -0.801808
5.059263 -0.586470 -0.796199
4.765679 -0.376843 -0.793730
4.536970 -0.191045 -0.800454
4.301912 -0.661606 -0.803308
4.124418 -0.480729 -0.806832
3.929105 -0.313314 -0.805291
3.773615 -0.158704 -0.810811
3.589696 -0.556306 -0.811105
3.460882 -0.406022 -0.812114
3.318221 -0.264950 -0.810362
3.220601 -0.136460 -0.819381
3.104188 -0.484894 -0.827586
2.983898 -0.352440 -0.821807
2.871801 -0.230062 -0.818446
2.807511 -0.118466 -0.829909
9.966229 -1.174643 -0.824163
8.753364 -0.711968 -0.804041
7.862754 -0.351958 -0.798220
7.256709 -1.129883 -0.803796
6.693697 -0.792844 -0.801726
6.188270 -0.505180 -0.798567
5.725482 -0.258090 -0.793754
5.405826 -0.844500 -0.802969
5.053516 -0.601522 -0.795581
4.785147 -0.393158 -0.797170
4.542265 -0.205230 -0.801496
4.315406 -0.677241 -0.806212
4.111227 -0.491981 -0.804543
3.940819 -0.326418 -0.807893
3.773110 -0.170280 -0.810811
3.575440 -0.565335 -0.808272
3.461553 -0.416871 -0.812568
3.318361 -0.275210 -0.810598
3.213390 -0.146032 -0.817657
3.105550 -0.494872 -0.828350
2.989505 -0.362405 -0.823654
2.874916 -0.239190 -0.819540
2.805218 -0.126992 -0.829343
9.970494 -1.206171 -0.824818
8.747169 -0.738484 -0.803676
7.883499 -0.377124 -0.800440
7.279715 -1.156352 -0.806733
6.704048 -0.814934 -0.803262
6.196574 -0.525001 -0.799843
5.729610 -0.275893 -0.794440
5.396371 -0.859991 -0.801953
5.049685 -0.616783 -0.795272
4.838963 -0.412530 -0.806342
4.515055 -0.217883 -0.796808
4.321076 -0.691721 -0.807664
4.109698 -0.504592 -0.804543
3.938823 -0.338423 -0.807693
3.773546 -0.181902 -0.811021
3.618975 -0.583604 -0.818514
3.461225 -0.427609 -0.812795
3.327182 -0.286222 -0.812964
3.240032 -0.157205 -0.824554
3.092564 -0.502536 -0.825293
3.005609 -0.373717 -0.828403
2.886628 -0.249084 -0.823092
2.803857 -0.135551 -0.829059
9.978615 -1.238227 -0.825800
8.747839 -0.765577 -0.803949
7.894229 -0.401916 -0.801651
7.286927 -1.180429 -0.807930
6.695604 -0.834760 -0.802553
6.197898 -0.544269 -0.800226
5.732693 -0.293672 -0.794988
5.388824 -0.875749 -0.801227
5.056592 -0.633378 -0.796662
4.837674 -0.427374 -0.806342
4.545838 -0.233350 -0.802364
4.300493 -0.701964 -0.804216
4.105209 -0.516830 -0.803971
3.969971 -0.353372 -0.814298
3.774923 -0.193578 -0.811441
3.629686 -0.596763 -0.821347
3.490814 -0.442141 -0.820058
3.316610 -0.295566 -0.810598
3.249213 -0.167643 -0.827018
3.105317 -0.514392 -0.829114
2.985312 -0.380498 -0.823126
2.887766 -0.258110 -0.823639
2.794808 -0.143709 -0.826510
9.969826 -1.268206 -0.825391
8.738506 -0.791782 -0.803311
7.897925 -0.426401 -0.802155
7.289157 -1.203751 -0.808583
6.711726 -0.857690 -0.804797
6.180395 -0.561845 -0.798184
5.732755 -0.311312 -0.795126
5.384160 -0.891954 -0.800936
5.064425 -0.650146 -0.798207
4.822587 -0.440956 -0.804049
4.542151 -0.247135 -0.801843
4.312870 -0.717576 -0.806938
4.104578 -0.529548 -0.804162
3.985454 -0.367078 -0.817701
3.782122 -0.205583 -0.813120
3.611475 -0.605154 -0.817643
3.479783 -0.451596 -0.817788
3.333103 -0.307345 -0.814856
3.225458 -0.176341 -0.821105
3.089422 -0.521502 -0.825293
3.008041 -0.392777 -0.829722
2.882172 -0.266526 -0.822272
2.801057 -0.152648 -0.828493
9.961936 -1.298272 -0.825063
8.786602 -0.823326 -0.807961
7.898567 -0.450743 -0.802357
7.279547 -1.225118 -0.807930
6.710048 -0.878406 -0.804915
6.203329 -0.583124 -0.801374
5.734739 -0.329069 -0.795537
5.413593 -0.913904 -0.805728
5.067304 -0.666325 -0.798979
4.810408 -0.454728 -0.802248
4.558085 -0.262029 -0.804794
4.304831 -0.729818 -0.805849
4.092229 -0.540723 -0.802064
3.983334 -0.379210 -0.817501
3.779521 -0.217074 -0.812700
3.607677 -0.615902 -0.817207
3.478382 -0.462269 -0.817788
3.328275 -0.317201 -0.813910
3.200713 -0.184839 -0.814947
3.093525 -0.531961 -0.826821
2.979096 -0.398297 -0.822071
2.876552 -0.274909 -0.820906
2.812065 -0.161903 -0.831892
9.981615 -1.331992 -0.827028
8.787009 -0.850567 -0.808234
7.895160 -0.474854 -0.802155
7.290451 -1.249966 -0.809562
6.712242 -0.899648 -0.805506
6.204472 -0.602440 -0.801756
5.736669 -0.346841 -0.795949
5.416614 -0.931514 -0.806599
5.062299 -0.681472 -0.798515
4.802117 -0.468813 -0.801101
4.558243 -0.276072 -0.804968
4.310325 -0.744360 -0.807301
4.109034 -0.555775 -0.805688
3.964601 -0.389704 -0.813898
3.784693 -0.229022 -0.813960
3.608656 -0.627469 -0.817861
3.474052 -0.472545 -0.817107
3.310848 -0.325793 -0.809889
3.209804 -0.195246 -0.817410
3.103309 -0.543451 -0.829878
2.971171 -0.406519 -0.820224
2.881439 -0.284300 -0.822546
2.801983 -0.169949 -0.829059
9.999206 -1.365576 -0.828829
8.783367 -0.877422 -0.808143
7.891681 -0.498948 -0.801953
7.288541 -1.272668 -0.809780
6.715353 -0.921046 -0.806214
6.202595 -0.621473 -0.801756
5.741509 -0.364816 -0.796772
5.421527 -0.949493 -0.807761
5.060184 -0.697000 -0.798515
4.782989 -0.481764 -0.798153
4.539684 -0.288929 -0.801843
4.311895 -0.758262 -0.808027
4.108281 -0.568514 -0.805878
3.950714 -0.400581 -0.811296
3.782997 -0.240571 -0.813750
3.616324 -0.640239 -0.820040
3.479338 -0.484140 -0.818696
3.327233 -0.337715 -0.814146
3.234337 -0.206700 -0.823815
3.113051 -0.555006 -0.832935
2.980417 -0.417103 -0.823126
2.870984 -0.292165 -0.819813
2.807191 -0.178910 -0.830759
10.012736 -1.398729 -0.830302
8.806389 -0.907018 -0.810514
7.887135 -0.522960 -0.801651
7.305155 -1.298677 -0.812064
6.715446 -0.942058 -0.806569
6.191780 -0.639582 -0.800608
5.738386 -0.382297 -0.796497
5.404952 -0.963690 -0.805728
5.067806 -0.713900 -0.800060
4.788357 -0.497149 -0.799299
4.536811 -0.302724 -0.801496
4.310516 -0.771660 -0.808209
4.099714 -0.580152 -0.804543
3.952390 -0.413005 -0.811896
3.756877 -0.250484 -0.808293
3.619145 -0.652196 -0.821129
3.478801 -0.494950 -0.818923
3.329080 -0.348224 -0.814856
3.218216 -0.215586 -0.819874
3.104674 -0.563345 -0.831152
2.990582 -0.427885 -0.826292
2.859550 -0.299868 -0.816807
2.800887 -0.187138 -0.829059
10.031091 -1.432682 -0.832185
8.810497 -0.934767 -0.811152
7.898396 -0.548050 -0.802962
7.311896 -1.323030 -0.813261
6.714490 -0.962938 -0.806805
6.189789 -0.658575 -0.800608
5.738175 -0.399969 -0.796635
5.421440 -0.983801 -0.808632
5.099818 -0.734373 -0.805466
4.792695 -0.512466 -0.800282
4.540773 -0.316984 -0.802364
4.310063 -0.785234 -0.808572
4.095972 -0.592446 -0.804162
3.949156 -0.424919 -0.811496
3.754140 -0.261873 -0.807873
3.614247 -0.662768 -0.820476
3.483048 -0.506461 -0.820285
3.327996 -0.358436 -0.814856
3.204004 -0.224509 -0.816425
3.083912 -0.569357 -0.826057
2.984483 -0.436360 -0.824973
2.882526 -0.311221 -0.823639
2.796473 -0.195463 -0.827926
10.019745 -1.462443 -0.831612
8.811548 -0.962225 -0.811517
7.914539 -0.573574 -0.804779
7.316601 -1.347076 -0.814240
6.712487 -0.983677 -0.806923
6.173936 -0.676050 -0.798822
5.736921 -0.417572 -0.796635
5.423261 -1.001327 -0.809358
5.091676 -0.749152 -0.804539
4.789139 -0.526952 -0.799955
4.544690 -0.331272 -0.803232
4.310535 -0.798991 -0.809116
4.105788 -0.606732 -0.806451
3.943939 -0.436602 -0.810695
3.769896 -0.274597 -0.811441
3.587252 -0.669200 -0.814810
3.476662 -0.516429 -0.819150
3.333641 -0.369394 -0.816512
3.212000 -0.234974 -0.818642
3.077398 -0.577923 -0.824784
2.964050 -0.442665 -0.819697
2.863393 -0.318045 -0.818446
2.801599 -0.204460 -0.829626
10.014225 -1.493029 -0.831530
8.809544 -0.989365 -0.811608
7.918694 -0.598302 -0.805384
7.299732 -1.367138 -0.812826
6.701581 -1.003090 -0.805978
6.174789 -0.695321 -0.799205
5.745489 -0.435920 -0.798006
5.425026 -1.018874 -0.810084
5.083492 -0.763889 -0.803612
4.793381 -0.542308 -0.800937
4.562310 -0.346631 -0.806530
4.321592 -0.814762 -0.811657
4.106820 -0.619765 -0.807023
3.934793 -0.447813 -0.809094
3.765136 -0.285865 -0.810601
3.618742 -0.686569 -0.822437
3.464469 -0.525486 -0.816653
3.342146 -0.380719 -0.818877
3.203533 -0.244238 -0.816671
3.066112 -0.585547 -0.822236
2.989378 -0.455827 -0.827084
2.875784 -0.328356 -0.822272
2.789483 -0.212181 -0.826227
10.027333 -1.526445 -0.833003
8.818338 -1.017758 -0.812702
7.916821 -0.622594 -0.805384
7.312104 -1.392689 -0.814676
6.703380 -1.024396 -0.806569
6.187406 -0.715972 -0.801118
5.757949 -0.454636 -0.799927
5.418959 -1.034956 -0.809649
5.060616 -0.776335 -0.800369
4.797574 -0.557694 -0.801920
4.578897 -0.362023 -0.809655
4.303619 -0.825054 -0.808753
4.121392 -0.634902 -0.810265
3.964541 -0.463523 -0.815500
3.751570 -0.296414 -0.807873
3.622369 -0.698777 -0.823744
3.458991 -0.535517 -0.815746
3.347717 -0.391762 -0.820533
3.204700 -0.254219 -0.817164
3.072845 -0.596610 -0.824529
3.011793 -0.468705 -0.833679
2.866164 -0.336169 -0.819813
2.782127 -0.220209 -0.824244
10.006845 -1.554753 -0.831693
8.827041 -1.046214 -0.813796
7.911899 -0.646636 -0.805081
7.305845 -1.414737 -0.814458
6.704130 -1.045569 -0.807041
6.189120 -0.735420 -0.801629
5.766400 -0.473109 -0.801299
5.394390 -1.047427 -0.806454
5.063091 -0.792621 -0.801141
4.779188 -0.570423 -0.799136
4.559116 -0.374537 -0.806356
4.311685 -0.840323 -0.810750
4.102939 -0.644952 -0.807023
3.930998 -0.471831 -0.808894
3.752592 -0.308082 -0.808293
3.625954 -0.711014 -0.825052
3.454446 -0.545670 -0.815065
3.349393 -0.402378 -0.821242
3.202940 -0.263970 -0.816917
3.081436 -0.608094 -0.827331
2.998909 -0.476127 -0.830513
2.867985 -0.345306 -0.820633
2.788129 -0.229293 -0.826227
10.039434 -1.591375 -0.834804
8.832686 -1.074372 -0.814616
7.907895 -0.670738 -0.804879
7.297569 -1.436377 -0.814023
6.711678 -1.067848 -0.808340
6.193726 -0.755245 -0.802522
5.771830 -0.491386 -0.802259
5.386298 -1.063014 -0.805728
5.087953 -0.812513 -0.805466
4.800916 -0.587961 -0.803067
4.559908 -0.388690 -0.806703
4.293653 -0.850490 -0.807846
4.111603 -0.659246 -0.809121
3.909111 -0.481375 -0.804690
3.780855 -0.322083 -0.814589
3.631413 -0.723661 -0.826795
3.451794 -0.556111 -0.814838
3.323071 -0.409562 -0.815092
3.185698 -0.272391 -0.812729
3.075764 -0.616784 -0.826312
3.000291 -0.485788 -0.831305
2.858319 -0.353042 -0.818173
2.788368 -0.237928 -0.826510
10.015810 -1.619147 -0.833249
8.828361 -1.101342 -0.814525
7.917694 -0.696042 -0.806090
7.286305 -1.457394 -0.813261
6.717192 -1.089865 -0.809403
6.195317 -0.774735 -0.803032
5.776216 -0.509614 -0.803082
5.399503 -1.082842 -0.808197
5.098114 -0.830184 -0.807474
4.790280 -0.601581 -0.801592
4.556732 -0.402504 -0.806356
4.298736 -0.865211 -0.809298
4.097936 -0.669957 -0.806832
3.948442 -0.498520 -0.813097
3.784719 -0.334111 -0.815639
3.627263 -0.734411 -0.826359
3.450071 -0.566698 -0.814838
3.343006 -0.422435 -0.820296
3.212844 -0.284644 -0.819874
3.067224 -0.624867 -0.824529
2.993076 -0.494048 -0.829722
2.864857 -0.362776 -0.820359
2.784759 -0.246228 -0.825661
10.030463 -1.653108 -0.834886
8.832842 -1.129432 -0.815255
7.930383 -0.721682 -0.807604
7.289592 -1.481325 -0.814132
6.724593 -1.112251 -0.810703
6.196846 -0.794243 -0.803542
5.780544 -0.527873 -0.803905
5.373857 -1.094859 -0.804857
5.102366 -0.846953 -0.808555
4.800153 -0.617785 -0.803558
4.558418 -0.416751 -0.806877
4.315330 -0.882335 -0.812928
4.103608 -0.683817 -0.808358
3.963412 -0.512768 -0.816500
3.778808 -0.345276 -0.814589
3.600138 -0.740424 -0.820694
3.450238 -0.577602 -0.815292
3.317605 -0.429570 -0.814383
3.218712 -0.295119 -0.821598
3.067186 -0.634666 -0.825038
2.982034 -0.501628 -0.827084
2.862777 -0.371440 -0.820086
2.789721 -0.255294 -0.827360
10.035173 -1.685524 -0.835704
8.823411 -1.155750 -0.814708
7.939027 -0.747034 -0.808714
7.282093 -1.503079 -0.813805
6.729962 -1.134362 -0.811765
6.201264 -0.814155 -0.804435
5.779883 -0.545698 -0.804043
5.384037 -1.114147 -0.806890
5.075389 -0.858483 -0.804694
4.788455 -0.631220 -0.801920
4.556137 -0.430642 -0.806703
4.295272 -0.891971 -0.809661
4.109233 -0.697718 -0.809884
3.921999 -0.519649 -0.808293
3.795252 -0.358523 -0.818367
3.586385 -0.749071 -0.818078
3.464770 -0.590968 -0.819150
3.332645 -0.441917 -0.818404
3.237088 -0.306821 -0.826525
3.089830 -0.649243 -0.831661
2.989988 -0.512404 -0.829722
2.855903 -0.379461 -0.818446
2.791789 -0.264123 -0.828210
10.044690 -1.718826 -0.836932
8.827720 -1.183873 -0.815437
7.957492 -0.773408 -0.810833
7.315391 -1.533367 -0.818048
6.706877 -1.151643 -0.809403
