x y z 
2.800663 -2.768450 -0.879314
2.755022 -2.528992 -0.871581
2.734516 -2.329280 -0.874462
2.382881 -2.361154 -0.883624
5.568515 -5.123091 -0.899993
5.283309 -4.516580 -0.893987
4.994148 -3.964046 -0.883061
4.287081 -4.248107 -0.885735
4.149520 -3.822016 -0.881919
3.994867 -3.418742 -0.873005
3.893518 -3.091099 -0.876316
3.394604 -3.368444 -0.882623
3.331697 -3.072612 -0.880649
3.248903 -2.784094 -0.874150
3.185630 -2.528828 -0.873149
2.785929 -2.770835 -0.877353
2.756551 -2.546022 -0.874532
2.738423 -2.347143 -0.878010
2.694833 -2.140603 -0.874811
2.385898 -2.378695 -0.887445
2.350058 -2.173998 -0.875627
5.549127 -5.136778 -0.899403
5.271684 -4.534708 -0.894370
4.992024 -3.987386 -0.884845
4.282436 -4.269622 -0.887477
4.127629 -3.825326 -0.879757
3.990340 -3.436132 -0.874316
3.884016 -3.103029 -0.876316
3.377294 -3.371894 -0.880808
3.317218 -3.078145 -0.879314
3.243315 -2.796607 -0.874950
3.193899 -2.551405 -0.877557
2.787763 -2.789725 -0.880622
2.772269 -2.576346 -0.882022
2.685225 -2.146440 -0.873826
2.370397 -2.377785 -0.884388
2.351144 -2.188426 -0.878529
5.536975 -5.157162 -0.899993
5.261496 -4.554106 -0.895007
4.984400 -4.006405 -0.885668
4.280493 -4.293952 -0.889800
4.112984 -3.835277 -0.879139
3.965614 -3.436084 -0.871204
3.874478 -3.114931 -0.876316
3.373872 -3.389209 -0.882623
3.307041 -3.087638 -0.879123
3.219179 -2.793061 -0.870747
3.178436 -2.555066 -0.875458
2.768875 -2.787877 -0.877353
2.767197 -2.587499 -0.882930
2.729840 -2.368996 -0.879902
2.363771 -2.385733 -0.884643
2.335970 -2.187717 -0.875363
5.526199 -5.178878 -0.900820
5.249743 -4.572180 -0.895390
4.971315 -4.021056 -0.885531
4.274959 -4.314795 -0.891398
4.099036 -3.845849 -0.878676
3.975130 -3.465738 -0.875626
3.864138 -3.126183 -0.876142
3.348241 -3.384165 -0.878630
3.298268 -3.098441 -0.879314
3.215761 -2.807435 -0.872148
3.173622 -2.567265 -0.876297
2.752767 -2.788719 -0.874956
2.733001 -2.571285 -0.874532
2.718900 -2.374165 -0.878720
2.346942 -2.383327 -0.881077
5.516787 -5.201939 -0.901883
5.234945 -4.587611 -0.895263
4.959723 -4.036914 -0.885668
4.272114 -4.338465 -0.893576
4.089373 -3.860441 -0.879139
3.967445 -3.480519 -0.876281
3.850710 -3.134915 -0.875274
3.332327 -3.388811 -0.877178
3.294454 -3.113940 -0.880839
3.208605 -2.818580 -0.872548
3.159665 -2.572051 -0.874618
2.743515 -2.796454 -0.874738
2.727222 -2.581666 -0.875213
2.700655 -2.372875 -0.875172
2.666859 -2.172287 -0.874318
2.342324 -2.393281 -0.882096
5.510887 -5.228408 -0.903537
5.218614 -4.601682 -0.894880
4.954978 -4.058388 -0.887040
4.256707 -4.349430 -0.893140
4.080376 -3.875691 -0.879757
3.967102 -3.501815 -0.878574
3.841074 -3.146714 -0.875274
3.328101 -3.405348 -0.878811
3.282039 -3.121326 -0.880077
3.210954 -2.838144 -0.875551
3.150247 -2.580494 -0.874199
2.749912 -2.820231 -0.879532
2.720699 -2.591365 -0.875667
2.691178 -2.379219 -0.874462
2.656434 -2.177387 -0.873087
2.347782 -2.413626 -0.886935
2.320622 -2.213785 -0.877210
5.502003 -5.252147 -0.904718
5.203730 -4.617013 -0.894752
4.944033 -4.074830 -0.887314
4.247483 -4.366724 -0.894011
4.089894 -3.908669 -0.884391
3.960765 -3.517900 -0.879557
3.831402 -3.158483 -0.875274
3.334767 -3.433178 -0.883349
3.267483 -3.126630 -0.878741
3.215409 -2.859702 -0.879154
3.140806 -2.588902 -0.873779
2.750076 -2.837766 -0.882365
2.710626 -2.597678 -0.874986
2.694756 -2.397151 -0.878010
2.334989 -2.415256 -0.884898
2.315907 -2.222898 -0.878001
5.482283 -5.265563 -0.904127
5.184361 -4.628332 -0.893859
4.931508 -4.089979 -0.887314
4.231315 -4.376890 -0.893430
4.079307 -3.922568 -0.884700
3.950689 -3.530692 -0.879721
3.824726 -3.172738 -0.875969
3.320804 -3.439855 -0.882441
3.250097 -3.129151 -0.876643
3.208081 -2.870860 -0.879554
3.138117 -2.602896 -0.875248
2.740003 -2.844783 -0.881930
2.704046 -2.607334 -0.875440
2.667842 -2.387911 -0.871624
2.322878 -2.417527 -0.883115
2.315321 -2.236023 -0.880376
5.456820 -5.273387 -0.902592
5.166448 -4.640902 -0.893222
4.920458 -4.106359 -0.887588
4.218553 -4.390564 -0.893576
4.062993 -3.930943 -0.883773
3.942773 -3.545434 -0.880376
3.817998 -3.186982 -0.876663
3.317043 -3.457123 -0.884256
3.239071 -3.137741 -0.876262
3.190521 -2.872821 -0.877152
3.126363 -2.609378 -0.874199
2.713041 -2.834141 -0.876046
2.686947 -2.606801 -0.872489
2.657615 -2.393484 -0.870678
2.650415 -2.213548 -0.877767
2.308103 -2.416949 -0.880313
2.317443 -2.251854 -0.883806
5.441328 -5.290796 -0.902710
5.155865 -4.660056 -0.893859
4.909353 -4.122709 -0.887863
4.199596 -4.397761 -0.892414
4.042419 -3.935120 -0.881919
3.935535 -3.560823 -0.881195
3.808957 -3.199314 -0.876836
3.305064 -3.465860 -0.883893
3.237865 -3.155886 -0.878551
3.169349 -2.871413 -0.873749
3.115348 -2.616443 -0.873359
2.719805 -2.858714 -0.881058
2.701935 -2.637482 -0.879979
2.639160 -2.217927 -0.876289
2.306669 -2.430332 -0.882605
2.299488 -2.248164 -0.879584
5.424360 -5.306770 -0.902592
5.152550 -4.685862 -0.895773
4.899708 -4.140309 -0.888412
4.184041 -4.408472 -0.891978
4.046562 -3.963404 -0.885472
3.931887 -3.579522 -0.882833
3.791602 -3.204627 -0.875101
3.297798 -3.479552 -0.884801
3.220458 -3.158244 -0.876452
3.164869 -2.885083 -0.874950
3.104319 -2.623463 -0.872519
2.694259 -2.849316 -0.875610
2.711201 -2.662820 -0.885654
2.647905 -2.414328 -0.872333
2.641224 -2.233523 -0.879246
2.293230 -2.431066 -0.880313
2.282265 -2.245062 -0.875627
5.414423 -5.329656 -0.903655
5.138882 -4.702317 -0.895900
4.896039 -4.163021 -0.890058
4.174570 -4.425606 -0.892850
4.035087 -3.976493 -0.885626
3.922341 -3.592900 -0.883160
3.782503 -3.216883 -0.875274
3.290478 -3.493232 -0.885708
3.217741 -3.175004 -0.878360
3.158891 -2.897429 -0.875751
3.088808 -2.626641 -0.870420
2.699540 -2.872504 -0.880186
2.698170 -2.666333 -0.884065
2.638337 -2.420470 -0.871624
2.635097 -2.242244 -0.879492
2.281792 -2.433857 -0.878784
5.402985 -5.351134 -0.904481
5.123702 -4.717389 -0.895773
4.890770 -4.184462 -0.891430
4.150146 -4.426844 -0.890526
4.020062 -3.986071 -0.885008
3.909124 -3.602911 -0.882669
3.777105 -3.232314 -0.876316
3.275713 -3.499004 -0.884619
3.219828 -3.196618 -0.881602
3.151427 -2.908435 -0.876152
3.091135 -2.645004 -0.873359
2.697376 -2.887905 -0.882365
2.669258 -2.653998 -0.877256
2.630899 -2.428553 -0.871624
2.628205 -2.250318 -0.879492
2.278929 -2.445799 -0.880567
5.380915 -5.362077 -0.903537
5.089560 -4.714887 -0.892329
4.862896 -4.186522 -0.888686
4.134521 -4.437384 -0.890091
3.998721 -3.989314 -0.883001
3.894435 -3.611533 -0.881850
3.770902 -3.247100 -0.877184
3.256255 -3.499678 -0.882260
3.209311 -3.205788 -0.881412
3.141053 -2.916757 -0.875751
3.077819 -2.650010 -0.871890
2.685184 -2.892590 -0.881276
2.677628 -2.678706 -0.882703
2.616149 -2.253942 -0.877767
2.268787 -2.449941 -0.879548
5.361634 -5.375748 -0.903064
5.101189 -4.754825 -0.896921
4.853024 -4.204015 -0.889235
4.126266 -4.455855 -0.891252
3.981582 -3.996664 -0.881919
3.875403 -3.616061 -0.880048
3.762411 -3.259943 -0.877531
3.236823 -3.500265 -0.879900
3.204308 -3.220490 -0.882747
3.127079 -2.921697 -0.874350
3.071892 -2.661361 -0.872519
2.682253 -2.907270 -0.883237
2.674202 -2.691744 -0.884292
2.640084 -2.467206 -0.879666
2.618742 -2.270211 -0.880970
2.268463 -2.464716 -0.882350
2.275601 -2.294129 -0.883806
5.344417 -5.391467 -0.902946
5.090919 -4.774524 -0.897686
4.840850 -4.219536 -0.889372
4.113246 -4.469221 -0.891398
3.970692 -4.010265 -0.882228
3.856379 -3.620507 -0.878247
3.756846 -3.275354 -0.878572
3.232058 -3.516696 -0.881534
3.201314 -3.237285 -0.884654
3.154507 -2.965502 -0.884559
3.070345 -2.676555 -0.874408
2.687172 -2.930592 -0.887813
2.667300 -2.701322 -0.884746
2.652322 -2.493930 -0.886289
2.612495 -2.278872 -0.881216
2.264807 -2.475946 -0.883879
2.262457 -2.294918 -0.881431
5.320882 -5.400764 -0.901765
5.080575 -4.794204 -0.898452
4.825647 -4.232408 -0.888960
4.107529 -4.490580 -0.893140
3.956984 -4.021019 -0.881919
3.845253 -3.632321 -0.878247
3.751962 -3.291410 -0.879788
3.224570 -3.530225 -0.882441
3.187927 -3.243591 -0.883701
3.153224 -2.982572 -0.886761
3.072410 -2.694988 -0.877347
2.684742 -2.946036 -0.889993
2.656953 -2.707407 -0.884065
2.629837 -2.488033 -0.881322
2.609133 -2.290073 -0.882448
2.269560 -2.496478 -0.888718
2.259456 -2.305982 -0.883014
5.304983 -5.417772 -0.901883
5.062246 -4.806354 -0.897814
4.819324 -4.253091 -0.890195
4.104381 -4.514874 -0.895463
3.946702 -4.035259 -0.882383
3.828371 -3.638664 -0.876936
3.741108 -3.302254 -0.879614
3.219012 -3.545927 -0.883893
3.171787 -3.247036 -0.881984
3.142639 -2.990881 -0.886360
3.063394 -2.703755 -0.877137
2.687485 -2.967279 -0.893915
2.648635 -2.715546 -0.884065
2.614450 -2.488720 -0.878720
2.603548 -2.299350 -0.882941
2.259297 -2.500558 -0.887700
2.261792 -2.322578 -0.886708
2.233886 -2.127572 -0.876380
5.292492 -5.438292 -0.902592
5.058952 -4.832824 -0.899855
4.815141 -4.275749 -0.891841
4.099797 -4.537723 -0.897496
3.944633 -4.057975 -0.884700
3.829310 -3.661982 -0.879721
3.709606 -3.294751 -0.874580
3.209436 -3.557246 -0.884256
3.170700 -3.265908 -0.884464
3.126372 -2.993732 -0.884359
3.052160 -2.710543 -0.876297
2.666615 -2.962454 -0.889993
2.640969 -2.724358 -0.884292
2.605399 -2.495385 -0.878247
2.585614 -2.297670 -0.879246
2.260014 -2.516832 -0.891011
2.264719 -2.339902 -0.890665
2.236376 -2.143068 -0.879932
5.275092 -5.453790 -0.902474
5.041240 -4.845573 -0.899345
4.808649 -4.296442 -0.893076
4.089822 -4.554697 -0.898367
3.956878 -4.095638 -0.890260
3.822323 -3.677817 -0.880703
3.702417 -3.308741 -0.875274
3.199164 -3.567808 -0.884438
3.156576 -3.271382 -0.883319
3.115761 -3.001950 -0.883958
3.040914 -2.717289 -0.875458
2.652959 -2.965529 -0.888467
2.635301 -2.735253 -0.885200
2.603328 -2.508761 -0.880139
2.574218 -2.301715 -0.877767
2.243267 -2.513653 -0.887445
2.245492 -2.334327 -0.885916
5.263152 -5.474959 -0.903300
5.015656 -4.850673 -0.897431
4.799865 -4.315148 -0.893899
4.081758 -4.573866 -0.899674
3.944978 -4.108471 -0.890414
3.815982 -3.694330 -0.881850
3.690784 -3.318767 -0.874927
3.188857 -3.578340 -0.884619
3.143127 -3.277508 -0.882365
3.089654 -2.995128 -0.879154
3.030382 -2.724644 -0.874828
2.634770 -2.963443 -0.885416
2.627571 -2.744029 -0.885427
2.597712 -2.518765 -0.880849
2.576511 -2.318029 -0.880970
2.238753 -2.524140 -0.888718
2.224322 -2.326563 -0.880376
2.223185 -2.156750 -0.879932
5.253876 -5.498978 -0.904599
4.993643 -4.859121 -0.896156
4.788807 -4.331847 -0.894310
4.072959 -4.592289 -0.900836
3.933719 -4.121984 -0.890723
3.808164 -3.709462 -0.882669
3.693000 -3.341307 -0.877878
3.177864 -3.588106 -0.884619
3.133057 -3.287136 -0.882365
3.088867 -3.012802 -0.881556
3.022734 -2.734584 -0.875038
2.630836 -2.977363 -0.887160
2.617797 -2.750666 -0.884973
2.581626 -2.518581 -0.878010
2.570824 -2.327223 -0.881463
2.213734 -2.511410 -0.881841
2.217174 -2.333377 -0.880376
2.208985 -2.156169 -0.876926
4.984381 -4.879970 -0.897176
4.775495 -4.346518 -0.894310
4.063430 -4.609959 -0.901852
3.908816 -4.121130 -0.887943
3.795356 -3.719746 -0.882341
3.688557 -3.357925 -0.879267
3.165541 -3.596363 -0.884256
3.124308 -3.298158 -0.882747
3.080308 -3.022951 -0.881756
3.014330 -2.743845 -0.875038
2.621045 -2.984687 -0.886942
2.612692 -2.762222 -0.886108
2.571114 -2.523767 -0.877064
2.551492 -2.324005 -0.877275
2.213665 -2.526919 -0.884898
4.972213 -4.898023 -0.897686
4.763598 -4.362487 -0.894585
4.051224 -4.624636 -0.902288
3.899543 -4.136698 -0.888715
3.783224 -3.730680 -0.882178
3.681143 -3.371886 -0.879961
3.142191 -3.591994 -0.880808
3.119558 -3.313445 -0.884273
3.071019 -3.032387 -0.881756
3.005176 -2.752420 -0.874828
2.624069 -3.006685 -0.891082
2.596867 -2.762419 -0.883611
2.569580 -2.537787 -0.879193
2.562927 -2.348847 -0.883680
2.204632 -2.532240 -0.884388
2.190933 -2.334277 -0.875627
4.959980 -4.916047 -0.898197
4.750920 -4.377752 -0.894722
4.037016 -4.637043 -0.902288
3.896966 -4.159457 -0.891032
3.775962 -3.746438 -0.883160
3.678746 -3.390506 -0.881871
3.141479 -3.613492 -0.883712
3.106024 -3.319416 -0.883319
3.063787 -3.043866 -0.882357
2.999594 -2.764277 -0.875668
2.614193 -3.013984 -0.890864
2.595694 -2.778201 -0.886108
2.543863 -2.527852 -0.873043
2.554284 -2.355385 -0.883187
2.207609 -2.551423 -0.888718
2.196920 -2.355095 -0.880903
6.712442 -7.192147 -0.807957
4.951195 -4.937545 -0.899345
4.741825 -4.396348 -0.895545
4.018887 -4.644917 -0.901416
3.890919 -4.178624 -0.892577
3.770734 -3.764278 -0.884634
3.669771 -3.403115 -0.882218
3.124592 -3.616416 -0.882078
3.093151 -3.326054 -0.882556
3.053048 -3.051866 -0.881957
2.993250 -2.775461 -0.876297
2.615129 -3.033818 -0.894351
2.570591 -2.768310 -0.880433
2.550525 -2.550072 -0.878010
2.550598 -2.366507 -0.884419
2.195989 -2.553785 -0.887190
2.185094 -2.356872 -0.879057
2.179794 -2.021758 -0.878061
4.941625 -4.958331 -0.900365
4.725418 -4.408172 -0.894996
3.997522 -4.648974 -0.899819
3.892174 -4.205769 -0.895820
3.760560 -3.777227 -0.884962
3.667954 -3.422420 -0.884301
3.112842 -3.625239 -0.881897
3.083599 -3.336249 -0.882747
3.040907 -3.058439 -0.881156
2.991155 -2.790633 -0.878186
2.592475 -3.026262 -0.889775
2.566709 -2.781194 -0.882022
2.538580 -2.553750 -0.876591
2.524197 -2.356464 -0.877767
2.191913 -2.564921 -0.888718
2.202690 -2.390520 -0.889082
2.178490 -2.033017 -0.880044
6.609414 -7.169447 -0.800835
4.940349 -4.987562 -0.902917
4.720539 -4.430784 -0.896643
3.976813 -4.653694 -0.898367
3.877246 -4.215508 -0.895357
3.745484 -3.785240 -0.884143
3.654565 -3.430961 -0.883607
3.117663 -3.653473 -0.886434
3.076669 -3.349309 -0.883701
3.038397 -3.074723 -0.883158
2.980441 -2.797790 -0.877557
2.592668 -3.045349 -0.893044
2.558165 -2.789055 -0.882022
2.530733 -2.561526 -0.876591
2.517663 -2.364860 -0.878014
2.200935 -2.591534 -0.895596
2.207724 -2.410783 -0.894095
2.167348 -2.035095 -0.878061
4.926416 -5.004109 -0.903172
4.709804 -4.447965 -0.897191
3.954190 -4.656069 -0.896480
3.866294 -4.229571 -0.895820
3.734546 -3.797416 -0.884307
3.651181 -3.448919 -0.885343
3.121705 -3.681021 -0.890790
3.069027 -3.361632 -0.884464
3.030322 -3.085428 -0.883558
2.983216 -2.817662 -0.880915
2.583313 -3.053288 -0.893044
2.549596 -2.796890 -0.882022
2.538520 -2.585224 -0.882031
2.510395 -2.372573 -0.878014
2.187360 -2.591624 -0.893303
2.195772 -2.412551 -0.892248
2.161791 -2.042393 -0.878344
6.593482 -7.240816 -0.804273
5.111997 -5.620382 -0.903655
4.910347 -5.018490 -0.903044
4.699007 -4.465123 -0.897740
3.939249 -4.667422 -0.896334
3.841341 -4.228250 -0.893040
3.718051 -3.803918 -0.883160
3.637727 -3.457391 -0.884648
3.117368 -3.698852 -0.892786
3.058039 -3.370305 -0.884273
3.018105 -3.091906 -0.882757
2.992985 -2.844313 -0.886372
2.573934 -3.061199 -0.893044
2.546888 -2.811195 -0.884065
2.501395 -2.563099 -0.871860
2.512235 -2.388946 -0.881216
2.165727 -2.582023 -0.887700
2.172831 -2.402108 -0.885916
2.153430 -2.047034 -0.877494
6.557861 -7.246231 -0.802636
4.889396 -5.027843 -0.902024
4.682423 -4.476781 -0.897191
3.939535 -4.696921 -0.899674
3.826365 -4.237816 -0.892577
3.704988 -3.813891 -0.882833
3.631374 -3.472619 -0.885690
3.100954 -3.702368 -0.891334
3.044398 -3.376025 -0.883319
3.009969 -3.102557 -0.883158
2.972231 -2.841995 -0.882804
2.559523 -3.063090 -0.891300
2.531735 -2.811758 -0.881795
2.502315 -2.579828 -0.874935
2.490888 -2.383242 -0.876289
2.164606 -2.596826 -0.890501
2.178993 -2.423827 -0.891456
2.164015 -2.232218 -0.883212
2.148526 -2.054956 -0.878061
6.542930 -7.274468 -0.803537
4.865676 -5.034262 -0.900493
4.677947 -4.500052 -0.898975
3.930174 -4.715065 -0.900836
3.817305 -4.253947 -0.893503
3.698752 -3.830918 -0.884143
3.617864 -3.481012 -0.884996
3.090839 -3.713376 -0.891697
3.038612 -3.390467 -0.884654
3.004517 -3.116009 -0.884359
2.957157 -2.844999 -0.880915
2.555726 -3.077686 -0.893261
2.532838 -2.830398 -0.885200
2.486970 -2.579798 -0.872333
2.497529 -2.404316 -0.881216
2.152311 -2.598241 -0.888718
2.156123 -2.413237 -0.885125
2.144975 -2.064199 -0.879194
6.650768 -7.440145 -0.819579
4.850208 -5.049166 -0.900493
4.661271 -4.511627 -0.898426
3.919477 -4.731672 -0.901707
3.814757 -4.277436 -0.895974
3.695860 -3.851501 -0.886272
3.605752 -3.490725 -0.884648
3.080686 -3.724356 -0.892060
3.035378 -3.407837 -0.886752
2.997654 -3.128042 -0.885159
2.942092 -2.847938 -0.879026
2.530741 -3.066694 -0.887813
2.519612 -2.833061 -0.883611
2.485093 -2.593730 -0.874462
2.490837 -2.412641 -0.881463
2.155392 -2.618271 -0.893303
2.147428 -2.418398 -0.884597
4.842913 -5.072631 -0.902024
4.648118 -4.526597 -0.898563
3.908715 -4.748258 -0.902578
3.799650 -4.286901 -0.895511
3.695601 -3.874957 -0.889057
3.592910 -3.499710 -0.884128
3.070494 -3.735309 -0.892423
3.029463 -3.422278 -0.888088
2.992774 -3.142190 -0.886560
2.930539 -2.854222 -0.878186
2.516989 -3.069161 -0.886288
2.523163 -2.854642 -0.887923
2.501246 -2.626673 -0.882977
2.479953 -2.416889 -0.880231
2.138165 -2.613644 -0.889483
2.139360 -2.424252 -0.884333
2.128126 -2.236015 -0.876926
4.841665 -5.102574 -0.904703
4.633501 -4.540144 -0.898426
3.902900 -4.770949 -0.904611
3.793664 -4.306693 -0.897210
3.687089 -3.889857 -0.889876
3.576529 -3.505202 -0.882739
3.059020 -3.744712 -0.892423
3.027379 -3.441138 -0.890567
2.992549 -3.161318 -0.889363
2.926657 -2.867990 -0.879656
2.500779 -3.068547 -0.883891
2.504110 -2.850663 -0.884292
2.480486 -2.620926 -0.878483
2.468375 -2.420415 -0.878753
2.137456 -2.629196 -0.892539
2.149085 -2.450384 -0.891456
4.827348 -5.118847 -0.904958
4.625193 -4.559901 -0.899524
3.882003 -4.775223 -0.903159
3.778481 -4.316081 -0.896747
3.681226 -3.907613 -0.891350
3.562953 -3.513392 -0.882044
3.045658 -3.751789 -0.891879
3.025853 -3.460755 -0.893238
2.990892 -3.179047 -0.891765
2.922021 -2.881074 -0.880915
2.507937 -3.096682 -0.889775
2.499195 -2.862734 -0.885654
2.483084 -2.639848 -0.882268
2.461627 -2.428657 -0.878999
2.128165 -2.634237 -0.892030
2.137755 -2.452603 -0.889873
4.819760 -5.142317 -0.906488
4.625247 -4.588021 -0.902267
3.862982 -4.781723 -0.902143
3.762628 -4.324672 -0.896129
3.664500 -3.913847 -0.890203
3.553556 -3.525694 -0.882392
3.029811 -3.755757 -0.890608
3.010715 -3.464835 -0.891902
2.981125 -3.188209 -0.891765
2.929133 -2.905863 -0.885743
2.498425 -3.104362 -0.889775
2.492954 -2.873330 -0.886562
2.467011 -2.638936 -0.879429
2.450726 -2.432784 -0.877767
2.120073 -2.640753 -0.892030
2.124536 -2.452588 -0.887499
2.115102 -2.098885 -0.880044
4.805989 -5.159257 -0.906871
4.611149 -4.602189 -0.902267
3.842720 -4.786608 -0.900836
3.750635 -4.337690 -0.896438
3.649115 -3.921461 -0.889384
3.547601 -3.541450 -0.883607
3.015199 -3.761199 -0.889701
2.999429 -3.473313 -0.891712
2.973331 -3.199492 -0.892365
2.924356 -2.918980 -0.887002
2.493766 -3.118110 -0.891518
2.484763 -2.881703 -0.886789
2.458904 -2.646492 -0.879429
2.443936 -2.440976 -0.878014
2.111961 -2.647245 -0.892030
2.135881 -2.481025 -0.895414
4.778684 -5.161604 -0.904703
4.594911 -4.614209 -0.901856
3.830484 -4.801468 -0.901416
3.754051 -4.368659 -0.900454
3.633048 -3.928292 -0.888402
3.549226 -3.564879 -0.886731
3.009772 -3.778123 -0.891516
2.988120 -3.481754 -0.891521
2.959512 -3.204281 -0.891164
2.922286 -2.934866 -0.889101
2.487831 -3.130330 -0.892826
2.479078 -2.893010 -0.887923
2.452750 -2.656165 -0.880139
2.429600 -2.441592 -0.875550
2.112841 -2.665079 -0.895851
2.116972 -2.474373 -0.890665
2.094229 -2.269102 -0.877200
4.758124 -5.171132 -0.903810
4.575856 -4.623356 -0.900895
3.826185 -4.826378 -0.903885
3.740631 -4.380156 -0.900454
3.617641 -3.935788 -0.887583
3.533424 -3.570851 -0.885516
3.007933 -3.799676 -0.894420
2.981883 -3.496133 -0.892856
2.921178 -3.182309 -0.882557
2.912581 -2.943123 -0.888891
2.479426 -3.139480 -0.893261
2.471454 -2.902085 -0.888377
2.452474 -2.672267 -0.882977
2.430276 -2.457304 -0.878506
2.108245 -2.676106 -0.897379
2.086877 -2.454401 -0.881167
2.090973 -2.113490 -0.878061
4.739560 -5.182778 -0.903299
4.560955 -4.636666 -0.900758
3.814421 -4.841980 -0.904611
3.728453 -4.393118 -0.900763
3.612869 -3.954880 -0.889384
3.527286 -3.586589 -0.886731
3.004774 -3.819707 -0.896961
2.969873 -3.503767 -0.892475
2.910741 -3.190533 -0.882357
2.909708 -2.958318 -0.890780
2.473397 -3.151678 -0.894569
2.488335 -2.940133 -0.897683
2.454740 -2.691265 -0.886762
2.434954 -2.477190 -0.882941
2.092276 -2.672662 -0.894068
2.079337 -2.460792 -0.881167
4.722303 -5.195826 -0.903044
4.548094 -4.652054 -0.901033
3.797718 -4.851323 -0.904175
3.713684 -4.403026 -0.900454
3.598729 -3.963754 -0.888893
3.514201 -3.595282 -0.886211
2.996069 -3.832781 -0.897868
2.949623 -3.501600 -0.889614
2.895016 -3.192915 -0.880555
2.888316 -2.954646 -0.887002
2.468518 -3.165409 -0.896312
2.488706 -2.958933 -0.901088
2.437988 -2.689425 -0.883687
2.429375 -2.486728 -0.883680
2.083473 -2.678306 -0.893813
2.088526 -2.487104 -0.888291
2.073256 -2.288281 -0.877200
4.707670 -5.211761 -0.903299
4.535180 -4.667406 -0.901307
3.779779 -4.859046 -0.903449
3.698254 -4.412127 -0.899990
3.588534 -3.976974 -0.889384
3.496978 -3.599689 -0.884648
2.986106 -3.844285 -0.898413
2.923114 -3.491815 -0.884845
2.884551 -3.201054 -0.880355
2.873787 -2.957884 -0.885323
2.455208 -3.168338 -0.895005
2.483364 -2.971038 -0.902450
2.464845 -2.735873 -0.896460
2.417683 -2.489998 -0.882202
2.075837 -2.685450 -0.894068
2.087684 -2.501646 -0.891193
2.082318 -2.312502 -0.884031
2.068091 -2.129206 -0.876645
4.696296 -5.231346 -0.904192
4.520840 -4.681298 -0.901307
3.762434 -4.867489 -0.902869
3.688495 -4.428007 -0.900917
3.586854 -3.999716 -0.892005
3.494127 -3.618902 -0.886731
2.974899 -3.854206 -0.898594
2.918665 -3.508313 -0.886752
2.882560 -3.218647 -0.882757
2.857907 -2.959653 -0.883224
2.445476 -3.175856 -0.895005
2.471126 -2.974897 -0.901315
2.430514 -2.714468 -0.886998
2.412725 -2.500193 -0.883187
2.072301 -2.697941 -0.896105
2.080000 -2.508039 -0.891193
2.077138 -2.321030 -0.884851
4.692110 -5.259051 -0.906488
4.514002 -4.703007 -0.902816
3.746278 -4.877439 -0.902578
3.669852 -4.433214 -0.899681
3.577191 -4.013647 -0.892660
3.491190 -3.638132 -0.888815
2.961265 -3.860974 -0.898050
2.914769 -3.525574 -0.888851
2.885048 -3.241381 -0.886560
2.849491 -2.969112 -0.883434
2.435721 -3.183344 -0.895005
2.454547 -2.973451 -0.898591
2.425404 -2.725541 -0.888181
2.404372 -2.506884 -0.882941
2.062841 -2.702749 -0.895596
2.080270 -2.524086 -0.894622
2.069368 -2.326673 -0.884578
4.675953 -5.273421 -0.906488
4.497501 -4.714683 -0.902404
3.730696 -4.888123 -0.902433
3.659373 -4.448267 -0.900454
3.570094 -4.030510 -0.893970
3.482731 -3.651676 -0.889509
2.949406 -3.870041 -0.898050
2.908301 -3.539809 -0.890186
2.886126 -3.262692 -0.889963
2.848466 -2.986331 -0.885952
2.428306 -3.193909 -0.895877
2.441090 -2.975697 -0.897002
2.408663 -2.723507 -0.885106
2.404694 -2.522667 -0.885897
2.056292 -2.711376 -0.896360
2.060293 -2.515531 -0.889346
2.046931 -2.315713 -0.878020
2.052378 -2.152314 -0.878344
4.671556 -5.301136 -0.908785
4.489830 -4.735648 -0.903776
3.722258 -4.908217 -0.904030
3.645708 -4.459472 -0.900454
3.570748 -4.056253 -0.897246
3.468801 -3.659485 -0.888815
2.937519 -3.879071 -0.898050
2.901773 -3.554037 -0.891521
2.879984 -3.275946 -0.891164
2.849381 -3.005699 -0.889101
2.424967 -3.209910 -0.898274
2.431949 -2.983172 -0.897002
2.406070 -2.737452 -0.887235
2.396944 -2.530032 -0.885897
2.043890 -2.712266 -0.894577
2.062917 -2.534558 -0.893831
2.039816 -2.321982 -0.878020
2.053022 -2.166258 -0.881460
4.644815 -5.303506 -0.906744
4.479356 -4.753725 -0.904599
3.711946 -4.925935 -0.905192
3.633255 -4.472170 -0.900763
3.563483 -4.073129 -0.898557
3.454856 -3.667242 -0.888120
2.930925 -3.895137 -0.899683
2.895804 -3.569021 -0.893047
2.870564 -3.285504 -0.891365
2.846851 -3.021543 -0.891200
2.418037 -3.221237 -0.899363
2.424011 -2.992133 -0.897456
2.395103 -2.741894 -0.886289
2.387841 -2.535963 -0.885404
2.037298 -2.720846 -0.895341
2.051492 -2.536375 -0.892248
2.049132 -2.347069 -0.885125
2.058861 -2.185810 -0.886842
4.629825 -5.319227 -0.906999
4.465428 -4.768168 -0.904737
3.698595 -4.939677 -0.905627
3.619518 -4.483295 -0.900763
3.538025 -4.069153 -0.895281
3.444262 -3.678543 -0.888294
2.925439 -3.912774 -0.901680
2.886073 -3.579417 -0.893428
2.855975 -3.289117 -0.889963
2.828211 -3.020271 -0.888261
2.405226 -3.224729 -0.898274
2.411766 -2.995762 -0.896321
2.380947 -2.742626 -0.884160
2.382699 -2.546107 -0.886390
2.033559 -2.733291 -0.897379
2.049139 -2.549424 -0.894622
2.044443 -2.356251 -0.886218
2.041003 -2.180214 -0.882026
4.617377 -5.337907 -0.907764
4.452803 -4.784021 -0.905148
3.681060 -4.947825 -0.905047
3.607601 -4.496691 -0.901226
3.531329 -4.086707 -0.896755
3.436315 -3.692698 -0.889162
2.916940 -3.926468 -0.902769
2.877533 -3.591319 -0.894191
2.845870 -3.297863 -0.889963
2.824261 -3.034659 -0.889940
2.384280 -3.217195 -0.894133
2.402564 -3.003147 -0.896321
2.380773 -2.759481 -0.887235
2.377517 -2.556244 -0.887375
2.012517 -2.722409 -0.891775
2.035890 -2.548915 -0.892248
2.038461 -2.363969 -0.886764
2.029731 -2.181551 -0.880044
4.606798 -5.358817 -0.908912
4.440796 -4.800568 -0.905697
3.667040 -4.960686 -0.905337
3.596252 -4.510828 -0.901844
3.514276 -4.092282 -0.895608
3.430319 -3.709007 -0.890551
2.908968 -3.940937 -0.904039
2.870782 -3.605506 -0.895526
2.838291 -3.309554 -0.890764
2.822240 -3.051205 -0.892249
2.381922 -3.234711 -0.896966
2.392733 -3.009742 -0.896094
2.361544 -2.754233 -0.883214
2.374268 -2.568508 -0.889100
2.017322 -2.746496 -0.897634
2.037056 -2.566482 -0.896205
2.029947 -2.368751 -0.886218
2.021075 -2.185655 -0.879194
4.595490 -5.378957 -0.909933
4.428728 -4.817086 -0.906246
3.655318 -4.976698 -0.906208
3.587918 -4.528810 -0.903234
3.502985 -4.104545 -0.895936
3.431587 -3.733289 -0.893849
2.899771 -3.953808 -0.904947
2.860316 -3.615066 -0.895717
2.833208 -3.324211 -0.892365
2.810219 -3.056970 -0.891410
2.361614 -3.227826 -0.893044
2.386507 -3.020890 -0.897229
2.353083 -2.761465 -0.883214
2.369655 -2.579349 -0.890332
2.006606 -2.749548 -0.896615
2.005876 -2.543183 -0.885916
2.019552 -2.371306 -0.884851
2.015658 -2.193258 -0.879760
4.579608 -5.393787 -0.910060
4.415265 -4.832113 -0.906520
3.643532 -4.992684 -0.907079
3.578285 -4.545230 -0.904315
3.494204 -4.119787 -0.896919
3.418788 -3.742346 -0.893502
2.885890 -3.960301 -0.904402
2.854065 -3.629998 -0.897243
2.825529 -3.335878 -0.893166
2.790935 -3.054750 -0.888261
2.358586 -3.244529 -0.895659
2.380234 -3.032027 -0.898364
2.348995 -2.773862 -0.884870
2.360424 -2.585175 -0.889839
1.994188 -2.750211 -0.894832
1.995684 -2.546288 -0.884861
2.009781 -2.374554 -0.883758
2.012154 -2.202972 -0.881177
4.567516 -5.413118 -0.910953
4.399088 -4.844170 -0.906246
3.633424 -5.011048 -0.908386
3.564932 -4.556965 -0.904469
3.475827 -4.123699 -0.895445
3.405305 -3.750629 -0.892981
2.871996 -3.966747 -0.903858
2.847750 -3.644925 -0.898769
2.819698 -3.349778 -0.894567
2.787465 -3.069813 -0.890150
2.357193 -3.263617 -0.898927
2.370921 -3.039316 -0.898364
2.357992 -2.801870 -0.891493
2.346620 -2.585945 -0.887622
1.987437 -2.758670 -0.895596
1.979565 -2.541745 -0.881167
1.998772 -2.376292 -0.882119
2.006675 -2.210555 -0.881743
5.651945 -6.258329 -0.855229
4.551524 -5.427866 -0.911081
4.378896 -4.851761 -0.905148
3.616877 -5.020566 -0.908096
3.551541 -4.568660 -0.904624
3.475828 -4.149468 -0.898720
3.394442 -3.761790 -0.893155
2.861536 -3.977934 -0.904402
2.832942 -3.648992 -0.897625
2.813808 -3.363673 -0.895969
2.779999 -3.080528 -0.890780
2.350014 -3.274798 -0.900017
2.361585 -3.046575 -0.898364
2.338164 -2.795676 -0.887235
2.336728 -2.590973 -0.886883
1.987406 -2.776549 -0.899417
1.968216 -2.543229 -0.879584
1.992089 -2.383151 -0.882392
2.014660 -2.233079 -0.888258
5.616105 -6.257129 -0.852706
4.537390 -5.444851 -0.911591
4.362668 -4.863697 -0.904874
3.602609 -5.033248 -0.908386
3.538716 -4.581099 -0.904933
3.464975 -4.162387 -0.899212
3.386173 -3.775852 -0.894023
2.844172 -3.979494 -0.902769
2.825931 -3.663107 -0.898960
2.800970 -3.369277 -0.895168
2.773146 -3.091954 -0.891620
2.341656 -3.284377 -0.900671
2.352822 -3.054578 -0.898591
2.339513 -2.814792 -0.891019
2.330062 -2.599573 -0.887375
1.972154 -2.773177 -0.896360
1.966284 -2.556902 -0.882223
1.979236 -2.382592 -0.879932
2.011641 -2.243533 -0.889957
5.587610 -6.263935 -0.851293
4.511175 -5.447288 -0.909678
4.345089 -4.874101 -0.904325
3.585430 -5.041858 -0.907951
3.525848 -4.593501 -0.905242
3.448416 -4.168437 -0.898229
3.378504 -3.790634 -0.895064
2.833658 -3.990606 -0.903313
2.804527 -3.658515 -0.895717
2.793116 -3.380875 -0.895969
2.767551 -3.104826 -0.892879
2.346800 -3.313048 -0.906555
2.347583 -3.067195 -0.900180
2.324679 -2.814465 -0.888654
2.317563 -2.601644 -0.885651
1.963636 -2.779214 -0.896360
1.967801 -2.575185 -0.886444
1.974367 -2.391620 -0.881026
2.006024 -2.251127 -0.890524
5.558466 -6.269882 -0.849780
4.493181 -5.459571 -0.909423
4.330115 -4.887409 -0.904325
3.568232 -5.050410 -0.907515
3.510541 -4.602726 -0.904933
3.441876 -4.186618 -0.899867
3.376000 -3.811302 -0.897494
2.821968 -4.000085 -0.903495
2.810539 -3.689748 -0.901249
2.783352 -3.390186 -0.896169
2.765144 -3.121353 -0.895188
2.325953 -3.305068 -0.902414
2.336983 -3.072833 -0.899726
2.314801 -2.820081 -0.888181
2.323704 -2.624706 -0.891071
1.950100 -2.778102 -0.894068
1.951141 -2.569687 -0.882486
1.970071 -2.401385 -0.882392
2.002288 -2.260860 -0.891940
4.479550 -5.477169 -0.910060
4.318373 -4.904388 -0.905011
3.554426 -5.063763 -0.907951
3.499387 -4.617411 -0.905705
3.430888 -4.199449 -0.900358
3.366244 -3.823859 -0.898015
2.810247 -4.009529 -0.903676
2.799799 -3.699136 -0.901439
2.775416 -3.401746 -0.896969
2.761370 -3.136426 -0.897077
2.295669 -3.283394 -0.894569
2.321085 -3.071441 -0.897229
2.311051 -2.833193 -0.890073
2.323323 -2.640555 -0.894027
1.947099 -2.792004 -0.896615
1.972876 -2.614931 -0.895941
1.963302 -2.408163 -0.882665
1.992807 -2.264113 -0.890807
4.462725 -5.490886 -0.910060
4.307872 -4.922831 -0.905971
3.548495 -5.088440 -0.910419
3.486987 -4.630493 -0.906168
3.421719 -4.214550 -0.901341
3.357739 -3.837875 -0.898883
2.794561 -4.013289 -0.902587
2.780766 -3.697510 -0.898960
2.767434 -3.413289 -0.897770
2.744652 -3.136789 -0.894768
2.281688 -3.284810 -0.893044
2.293523 -3.054405 -0.890193
2.293170 -2.828948 -0.886525
2.313297 -2.645481 -0.893288
1.929713 -2.785246 -0.892539
1.957902 -2.611710 -0.892775
1.955299 -2.413427 -0.882392
1.985852 -2.270216 -0.890807
4.445235 -5.503780 -0.909933
4.301850 -4.946488 -0.907892
3.532867 -5.099302 -0.910419
3.472173 -4.640378 -0.906014
3.411869 -4.228867 -0.902160
3.345303 -3.847415 -0.898710
2.781116 -4.020227 -0.902224
2.772348 -3.709955 -0.899913
2.750803 -3.414134 -0.895768
2.723468 -3.131914 -0.890990
2.270491 -3.290188 -0.892608
2.285889 -3.063769 -0.890874
2.285699 -2.837483 -0.886998
2.303262 -2.650371 -0.892549
1.917869 -2.786374 -0.891011
1.948728 -2.616157 -0.892248
1.935820 -2.404429 -0.876926
1.976990 -2.274127 -0.889957
4.433295 -5.523580 -0.910953
4.279529 -4.951419 -0.906383
3.534596 -5.135383 -0.914920
3.466173 -4.662109 -0.908176
3.399497 -4.240084 -0.902324
3.335415 -3.859895 -0.899230
2.768770 -4.028740 -0.902224
2.758612 -3.715291 -0.899151
2.737866 -3.419498 -0.894968
2.713207 -3.139515 -0.890780
2.271423 -3.313238 -0.896966
2.276479 -3.070768 -0.890874
2.278198 -2.845999 -0.887471
2.295120 -2.657425 -0.892549
1.917499 -2.804218 -0.894832
1.945283 -2.628326 -0.894358
1.945261 -2.431389 -0.884578
1.963734 -2.272924 -0.887125
4.419420 -5.541032 -0.911591
4.268836 -4.969785 -0.907343
3.524408 -5.154370 -0.916372
3.452440 -4.673516 -0.908331
3.388931 -4.253580 -0.902979
3.321632 -3.867869 -0.898710
2.763050 -4.046962 -0.904402
2.748366 -3.725317 -0.899532
2.726142 -3.426348 -0.894567
2.697829 -3.141149 -0.888891
2.264544 -3.325031 -0.898274
2.276288 -3.090283 -0.894506
2.274295 -2.859059 -0.889364
2.276226 -2.651952 -0.888361
1.896933 -2.792490 -0.889228
1.936639 -2.633505 -0.894095
1.935997 -2.435086 -0.883758
1.957376 -2.279666 -0.887408
4.254855 -4.984365 -0.907617
3.509690 -5.166795 -0.916663
3.433409 -4.677714 -0.907095
3.378927 -4.267825 -0.903798
3.307832 -3.875794 -0.898189
2.753934 -4.060303 -0.905491
2.737504 -3.734522 -0.899723
2.716225 -3.435464 -0.894767
2.711665 -3.176927 -0.896657
2.251050 -3.327113 -0.896966
2.270248 -3.101968 -0.895867
2.264910 -2.865260 -0.889127
2.274998 -2.667033 -0.891071
1.894848 -2.807915 -0.892285
1.930826 -2.642549 -0.895150
1.933884 -2.447807 -0.886218
1.949750 -2.284930 -0.887125
4.240825 -4.998906 -0.907892
3.495483 -5.179999 -0.917098
3.416713 -4.685033 -0.906477
3.371917 -4.285924 -0.905436
3.286371 -3.874658 -0.895585
2.743662 -4.071994 -0.906217
2.723722 -3.739730 -0.898960
2.711120 -3.450715 -0.896569
2.703803 -3.187468 -0.897287
2.239199 -3.331573 -0.896312
2.273894 -3.127035 -0.901088
2.256709 -2.872960 -0.889364
2.265551 -2.672522 -0.890578
1.884070 -2.810503 -0.891266
1.928943 -2.657047 -0.898052
1.910327 -2.433300 -0.878839
1.940870 -2.288707 -0.886275
4.220999 -5.006592 -0.906932
3.477921 -5.188233 -0.916663
3.401164 -4.693893 -0.906168
3.364828 -4.304020 -0.907074
3.280180 -3.891499 -0.897147
2.732250 -4.082027 -0.906580
2.705906 -3.739320 -0.896862
2.699918 -3.458244 -0.896369
2.682038 -3.181545 -0.893299
2.230593 -3.340862 -0.896966
2.255735 -3.122155 -0.897683
2.253265 -2.886763 -0.891493
2.262337 -2.685390 -0.892549
1.869543 -2.807416 -0.888464
1.923604 -2.666863 -0.899371
1.909361 -2.447492 -0.881845
1.930749 -2.290984 -0.884859
4.204347 -5.018000 -0.906657
3.457601 -5.192290 -0.915501
3.382707 -4.698693 -0.905087
3.348582 -4.310428 -0.906255
3.268858 -3.902300 -0.897321
2.718080 -4.087934 -0.906036
2.705309 -3.762748 -0.900486
2.688094 -3.464963 -0.895969
2.678543 -3.197253 -0.895398
2.232201 -3.365584 -0.901760
2.235923 -3.114820 -0.893598
2.248566 -2.899036 -0.893148
2.252221 -2.690088 -0.891810
1.885463 -2.850238 -0.900181
1.908670 -2.663344 -0.896205
1.905969 -2.458660 -0.883758
1.931717 -2.306455 -0.888541
4.193369 -5.036203 -0.907617
3.441109 -5.202048 -0.915356
3.367701 -4.708245 -0.904933
3.332328 -4.316776 -0.905436
3.265692 -3.922906 -0.899751
2.700106 -4.088048 -0.904221
2.696605 -3.775024 -0.901439
2.666684 -3.459226 -0.892365
2.671849 -3.209212 -0.896447
2.218643 -3.367526 -0.900453
2.224094 -3.118493 -0.892690
2.247372 -2.915926 -0.896223
2.232800 -2.683575 -0.887375
1.901138 -2.893185 -0.911898
1.901609 -2.670759 -0.896733
1.893720 -2.458400 -0.881572
1.928313 -2.316793 -0.890241
4.190528 -5.064308 -0.910361
3.425133 -5.212581 -0.915356
3.360680 -4.729024 -0.906941
3.312464 -4.318370 -0.903634
3.254269 -3.933665 -0.899925
2.689709 -4.099601 -0.904947
2.688988 -3.788883 -0.902775
2.653675 -3.464280 -0.891565
2.652019 -3.205341 -0.893089
2.209370 -3.375950 -0.900889
2.215079 -3.126096 -0.892917
2.239006 -2.923578 -0.896460
2.213440 -2.676968 -0.882941
1.880096 -2.880379 -0.906039
1.893407 -2.676580 -0.896733
1.883831 -2.461143 -0.880479
1.930365 -2.333783 -0.894489
4.181262 -5.084791 -0.911733
3.409666 -5.223893 -0.915501
3.351855 -4.747383 -0.908485
3.300396 -4.330081 -0.903962
3.244062 -3.945913 -0.900446
2.681952 -4.115249 -0.906580
2.671128 -3.788290 -0.900676
2.651342 -3.483320 -0.894367
2.641552 -3.212707 -0.892879
2.196875 -3.379439 -0.900017
2.206039 -3.133674 -0.893144
2.237087 -2.939712 -0.899298
2.229828 -2.713699 -0.892795
1.855468 -2.861791 -0.898398
1.885186 -2.682377 -0.896733
1.881512 -2.473801 -0.882938
1.901881 -2.313764 -0.884576
4.172537 -5.106033 -0.913242
3.393085 -5.233499 -0.915356
3.345217 -4.768968 -0.910647
3.288883 -4.342545 -0.904453
3.229448 -3.952797 -0.899751
2.668245 -4.121807 -0.906217
2.666252 -3.806115 -0.902965
2.653055 -3.507847 -0.898571
2.626115 -3.213982 -0.890990
2.193379 -3.396822 -0.902850
2.198647 -3.143619 -0.894052
2.221026 -2.937262 -0.896460
2.209232 -2.705513 -0.887868
1.861340 -2.890235 -0.905530
1.877500 -2.688938 -0.896997
1.886093 -2.495678 -0.888677
1.905694 -2.332957 -0.889674
4.165595 -5.129575 -0.915163
3.377013 -5.243885 -0.915356
3.319273 -4.762997 -0.907558
3.276731 -4.354191 -0.904781
3.217306 -3.962686 -0.899751
2.651332 -4.123356 -0.904765
2.656245 -3.816694 -0.903538
2.639926 -3.512837 -0.897770
2.634115 -3.244036 -0.897077
2.180313 -3.399428 -0.901760
2.191215 -3.153549 -0.894960
2.216673 -2.950276 -0.898352
2.221685 -2.737865 -0.896244
1.854027 -2.898375 -0.906294
1.865943 -2.689931 -0.895414
1.879005 -2.502222 -0.888950
1.888857 -2.326879 -0.885142
5.538435 -7.394126 -0.845797
4.150460 -5.143101 -0.915300
3.360909 -5.254220 -0.915356
3.305207 -4.773970 -0.907713
3.259812 -4.359483 -0.903798
3.206989 -3.974837 -0.900272
2.639728 -4.133128 -0.905128
2.645081 -3.825633 -0.903728
2.634998 -3.528771 -0.899772
2.616169 -3.242210 -0.894348
2.173544 -3.411863 -0.903286
2.195915 -3.181096 -0.900861
2.209355 -2.959399 -0.899062
2.209624 -2.740142 -0.894766
1.851868 -2.914660 -0.909605
1.853303 -2.689289 -0.893303
1.882250 -2.522623 -0.894143
1.893150 -2.346846 -0.890524
5.496698 -7.385519 -0.842880
4.129704 -5.149629 -0.914202
3.343712 -5.262837 -0.915066
3.292225 -4.786530 -0.908176
3.250541 -4.375007 -0.904944
3.200323 -3.991573 -0.901834
2.631249 -4.147850 -0.906580
2.632220 -3.832111 -0.903347
2.630581 -3.545493 -0.901974
2.611714 -3.257086 -0.896237
2.163588 -3.419340 -0.903504
2.186696 -3.188621 -0.901088
2.203160 -2.970065 -0.900244
2.199389 -2.744639 -0.894027
1.858399 -2.944862 -0.917247
1.839595 -2.687003 -0.890665
1.872783 -2.526068 -0.893323
1.879943 -2.345160 -0.887691
5.447961 -7.367118 -0.838868
4.115120 -5.163824 -0.914477
3.328606 -5.274744 -0.915356
3.273623 -4.790898 -0.907095
3.235345 -4.382578 -0.904453
3.197881 -4.013696 -0.904612
2.621133 -4.160063 -0.907488
2.617131 -3.835304 -0.902202
2.614459 -3.546449 -0.900172
2.598663 -3.261260 -0.895188
2.152568 -3.425135 -0.903286
2.181290 -3.201753 -0.902904
2.200955 -2.986196 -0.903083
2.193373 -2.754406 -0.895012
1.846788 -2.946452 -0.915973
1.825918 -2.684658 -0.888027
1.838210 -2.495401 -0.880479
1.879910 -2.359918 -0.891090
5.389365 -7.334845 -0.833307
4.097414 -5.174095 -0.914065
3.315035 -5.289123 -0.916082
3.263348 -4.807458 -0.908331
3.221301 -4.391688 -0.904289
3.193499 -4.033525 -0.906869
2.612009 -4.173921 -0.908758
2.600395 -3.836002 -0.900486
2.595461 -3.543388 -0.897370
2.585610 -3.265385 -0.894138
2.144117 -3.435035 -0.904158
2.168181 -3.203591 -0.901542
2.187190 -2.986663 -0.901190
2.186116 -2.762643 -0.895505
1.835185 -2.948000 -0.914700
1.829553 -2.707831 -0.893831
1.840204 -2.514225 -0.885125
1.863732 -2.354395 -0.886842
5.363901 -7.347323 -0.832851
4.079683 -5.184306 -0.913654
3.299315 -5.300108 -0.916227
3.248584 -4.817447 -0.908331
3.202002 -4.393577 -0.902651
3.182936 -4.045626 -0.907390
2.603344 -4.188596 -0.910210
2.599032 -3.859432 -0.904110
2.584001 -3.550542 -0.897170
2.567720 -3.263313 -0.891410
2.139739 -3.451550 -0.906773
2.164320 -3.219118 -0.904039
2.173444 -2.987074 -0.899298
2.184818 -2.778479 -0.898461
1.824606 -2.951149 -0.913936
1.814786 -2.703820 -0.890665
1.825127 -2.509745 -0.881572
1.864801 -2.370655 -0.890807
4.060708 -5.192896 -0.912968
3.283560 -5.311047 -0.916372
3.242037 -4.839704 -0.910647
3.185615 -4.399386 -0.901832
3.158378 -4.039855 -0.903918
2.592031 -4.199074 -0.910755
2.583904 -3.862492 -0.902965
2.569078 -3.552895 -0.895768
2.559503 -3.273486 -0.892039
2.135280 -3.468072 -0.909388
2.132797 -3.193348 -0.894960
2.162562 -2.991366 -0.898589
2.151221 -2.753094 -0.888114
1.813520 -2.953436 -0.912917
1.802737 -2.703757 -0.888818
1.817982 -2.516112 -0.881845
1.862244 -2.382410 -0.893073
7.523060 -9.668429 -0.790702
4.047796 -5.209241 -0.913654
3.262073 -5.312664 -0.914920
3.241405 -4.871014 -0.914663
3.170951 -4.407536 -0.901505
3.151407 -4.056525 -0.905480
2.579137 -4.207007 -0.910755
2.573129 -3.872037 -0.903347
2.562167 -3.566330 -0.897170
2.548249 -3.279779 -0.891620
2.128194 -3.480435 -0.910913
2.119760 -3.195007 -0.893598
2.136369 -2.974311 -0.891493
2.165351 -2.788770 -0.897476
1.805457 -2.960637 -0.913426
1.812543 -2.736617 -0.897788
1.815864 -2.529492 -0.884578
1.864339 -2.400230 -0.897605
7.489090 -9.685939 -0.790251
4.026346 -5.214578 -0.912419
3.254001 -5.336163 -0.917244
3.231893 -4.889177 -0.916208
3.165445 -4.428480 -0.903798
3.132929 -4.058379 -0.903744
2.566729 -4.215740 -0.910936
2.554207 -3.869262 -0.900867
2.551214 -3.574174 -0.897170
2.541162 -3.291451 -0.892669
2.122066 -3.494455 -0.912874
2.124418 -3.223451 -0.899726
2.142473 -3.002206 -0.897879
2.153825 -2.791564 -0.896244
1.796365 -2.966163 -0.913426
1.804138 -2.742165 -0.897788
1.809770 -2.537401 -0.885398
1.856967 -2.405939 -0.897605
7.439883 -9.683546 -0.788190
5.114089 -6.661170 -0.851697
4.024801 -5.245767 -0.915711
3.240689 -5.351199 -0.918115
3.216878 -4.899069 -0.916208
3.162125 -4.452648 -0.906746
3.123460 -4.071878 -0.904612
2.537501 -4.196665 -0.905128
2.545016 -3.881185 -0.901821
2.536835 -3.577189 -0.895969
2.532837 -3.301559 -0.893299
2.110831 -3.500114 -0.912657
2.127321 -3.249509 -0.905173
2.138310 -3.015898 -0.900008
2.135226 -2.785083 -0.892056
1.786758 -2.970831 -0.913172
1.795189 -2.746880 -0.897524
1.795303 -2.533523 -0.882119
1.842573 -2.402492 -0.894206
7.393184 -9.684117 -0.786386
5.029665 -6.592982 -0.841002
4.006886 -5.255728 -0.915300
3.227316 -5.366203 -0.918986
3.196436 -4.900640 -0.914663
3.150156 -4.464746 -0.907238
3.116326 -4.088491 -0.906174
2.522589 -4.201059 -0.904402
2.539526 -3.898845 -0.904110
2.532620 -3.594566 -0.898371
2.533365 -3.323310 -0.897077
2.094065 -3.496526 -0.910041
2.123182 -3.265002 -0.907670
2.133524 -3.028799 -0.901900
2.141942 -2.811665 -0.898461
1.768214 -2.960525 -0.908332
1.790430 -2.758038 -0.899371
1.799705 -2.556323 -0.888131
1.820661 -2.389064 -0.887125
7.353185 -9.693237 -0.785291
5.013020 -6.613139 -0.841607
3.990145 -5.267206 -0.915163
3.213882 -5.381176 -0.919857
3.182460 -4.912082 -0.914972
3.137576 -4.476006 -0.907565
3.106741 -4.101958 -0.907042
2.510192 -4.209622 -0.904584
2.535551 -3.918981 -0.906971
2.532256 -3.617570 -0.902174
2.537326 -3.349772 -0.902114
2.080335 -3.497901 -0.908734
2.101529 -3.253502 -0.902677
2.113079 -3.019409 -0.897169
2.138570 -2.825178 -0.900679
1.752710 -2.955123 -0.905020
1.779346 -2.759465 -0.898052
1.795713 -2.567350 -0.890043
1.814481 -2.396168 -0.887691
4.989715 -6.624514 -0.841103
3.969201 -5.273092 -0.914065
3.199881 -5.395265 -0.920583
3.167375 -4.921823 -0.914972
3.115936 -4.474277 -0.905272
3.094734 -4.112257 -0.907216
2.507286 -4.234227 -0.908214
2.520331 -3.921786 -0.905826
2.526180 -3.632561 -0.903975
2.528213 -3.359103 -0.902534
2.074557 -3.512670 -0.910913
2.091012 -3.259115 -0.902450
2.101033 -3.021889 -0.895987
2.117658 -2.815461 -0.895505
1.735784 -2.947155 -0.900945
1.773473 -2.768972 -0.899371
1.782888 -2.565738 -0.887584
1.810581 -2.406321 -0.889391
4.953272 -6.618285 -0.838378
3.964277 -5.300316 -0.916672
3.183816 -5.405910 -0.920728
3.157581 -4.939841 -0.916517
3.103878 -4.486249 -0.905763
3.082103 -4.121732 -0.907216
2.498272 -4.248681 -0.909666
2.509344 -3.931155 -0.906208
2.518922 -3.645937 -0.905377
2.517896 -3.366843 -0.902534
2.063770 -3.519018 -0.910913
2.073676 -3.254016 -0.899272
2.087334 -3.021925 -0.894094
2.109591 -2.822721 -0.895751
1.736986 -2.969996 -0.906294
1.768076 -2.779283 -0.900954
1.771182 -2.565654 -0.885671
1.804338 -2.413401 -0.889957
3.963950 -5.333919 -0.920376
3.170213 -5.420776 -0.921600
3.152473 -4.965353 -0.919451
3.096806 -4.505506 -0.907729
3.072380 -4.135121 -0.908084
2.487208 -4.259723 -0.910392
2.492015 -3.930544 -0.904301
2.508833 -3.655263 -0.905777
2.508721 -3.376122 -0.902954
2.050509 -3.521116 -0.909824
2.063683 -3.260363 -0.899272
2.089598 -3.045139 -0.899062
2.102654 -2.831514 -0.896491
1.732237 -2.982837 -0.908587
1.761602 -2.787956 -0.902009
1.767111 -2.576629 -0.887584
1.786059 -2.404298 -0.884576
3.154064 -5.431332 -0.921745
3.139333 -4.978345 -0.920069
3.090200 -4.525577 -0.909858
3.057925 -4.142150 -0.907563
2.477088 -4.272438 -0.911481
2.479422 -3.937341 -0.904110
2.498159 -3.663753 -0.905977
2.497771 -3.383016 -0.902744
2.030414 -3.511338 -0.905683
2.060927 -3.278222 -0.902450
2.077509 -3.047521 -0.897879
2.102013 -2.848869 -0.899939
1.733222 -3.005729 -0.913936
1.746375 -2.782726 -0.898580
1.749448 -2.567729 -0.882665
1.780953 -2.412852 -0.885709
3.137386 -5.440983 -0.921745
3.121947 -4.984603 -0.919451
3.076855 -4.535853 -0.910022
3.047532 -4.154689 -0.908257
2.456609 -4.267233 -0.908758
2.467331 -3.944929 -0.904110
2.488006 -3.673022 -0.906377
2.492006 -3.396970 -0.904423
2.020604 -3.519243 -0.906119
2.047249 -3.278747 -0.900861
2.068150 -3.053880 -0.897879
2.092117 -2.853742 -0.899447
1.725433 -3.013550 -0.914700
1.739360 -2.790527 -0.899371
1.751807 -2.588220 -0.887857
1.779781 -2.426812 -0.888824
3.122153 -5.453159 -0.922180
3.102986 -4.988285 -0.918370
3.062925 -4.545271 -0.910022
3.035932 -4.165611 -0.908605
2.442530 -4.273043 -0.908395
2.454698 -3.951647 -0.903919
2.478367 -3.683076 -0.906978
2.475238 -3.395908 -0.902114
2.011731 -3.528817 -0.906991
2.036667 -3.284185 -0.900634
2.059313 -3.061017 -0.898115
2.079929 -2.855446 -0.897969
1.713312 -3.013786 -0.913172
1.741960 -2.813893 -0.905175
1.740638 -2.588793 -0.886218
1.776845 -2.438462 -0.891090
7.242940 -9.986234 -0.796241
3.106875 -5.465293 -0.922616
3.086629 -4.996100 -0.918061
3.046222 -4.550548 -0.909203
3.017939 -4.167726 -0.907042
2.433777 -4.288213 -0.910029
2.439471 -3.954146 -0.902775
2.469778 -3.694735 -0.907979
2.461941 -3.399526 -0.901065
2.006183 -3.544315 -0.909388
2.030157 -3.296222 -0.902223
2.043434 -3.057627 -0.895277
2.074568 -2.866525 -0.899447
1.700731 -3.013133 -0.911389
1.736351 -2.824154 -0.906758
1.738030 -2.602120 -0.888950
1.772730 -2.448562 -0.892790
3.088634 -5.472214 -0.922180
3.073871 -5.009757 -0.918833
3.029515 -4.555765 -0.908384
3.009739 -4.183361 -0.908431
2.425920 -4.305084 -0.912025
2.429379 -3.964959 -0.903538
2.463309 -3.709641 -0.909780
2.452642 -3.408651 -0.901484
1.988128 -3.537691 -0.906119
2.017494 -3.298281 -0.901088
2.035119 -3.065501 -0.895750
2.073685 -2.883892 -0.902896
1.688642 -3.013275 -0.909860
1.717625 -2.813003 -0.901482
1.750780 -2.638700 -0.899608
1.768570 -2.458661 -0.894489
3.072315 -5.482527 -0.922326
3.061571 -5.024226 -0.919760
3.015524 -4.565038 -0.908384
2.995173 -4.190172 -0.907910
2.423744 -4.332245 -0.916200
2.423327 -3.982457 -0.905826
2.448680 -3.712273 -0.908579
2.439898 -3.412978 -0.900645
1.974412 -3.538660 -0.904811
2.016467 -3.319437 -0.905173
2.027844 -3.074974 -0.896696
2.063137 -2.887875 -0.902157
1.681270 -3.021822 -0.910879
1.691981 -2.790217 -0.892512
1.730501 -2.625586 -0.893323
1.763249 -2.467196 -0.895622
3.055481 -5.491927 -0.922326
3.045120 -5.031905 -0.919451
3.006376 -4.581691 -0.909858
2.985725 -4.204158 -0.908952
2.413307 -4.344819 -0.917289
2.416682 -3.999115 -0.907925
2.434057 -3.714851 -0.907378
2.426585 -3.416462 -0.899595
1.967802 -3.552385 -0.906773
2.010802 -3.333113 -0.907216
2.028516 -3.096623 -0.901190
2.055390 -2.895772 -0.902649
1.667784 -3.019347 -0.908587
1.692370 -2.810268 -0.897260
1.714007 -2.618006 -0.888950
1.754006 -2.470248 -0.894772
3.038617 -5.501275 -0.922326
3.024069 -5.031908 -0.917752
2.999308 -4.601636 -0.911987
2.972813 -4.213299 -0.908952
2.400440 -4.353063 -0.917470
2.411979 -4.019136 -0.910786
2.419442 -3.717374 -0.906177
2.416092 -3.423890 -0.899595
1.955484 -3.555840 -0.906119
1.982548 -3.309191 -0.899045
2.013177 -3.093874 -0.898589
2.049289 -2.906024 -0.903881
1.666417 -3.038864 -0.912917
1.692157 -2.829520 -0.901745
1.716456 -2.639380 -0.894416
1.744208 -2.472483 -0.893639
3.812336 -5.437268 -0.919690
3.023152 -5.513174 -0.922761
3.008111 -5.040314 -0.917598
2.986248 -4.612472 -0.912315
2.959873 -4.222399 -0.908952
2.386130 -4.358682 -0.917107
2.406170 -4.037479 -0.913265
2.416005 -3.737122 -0.909180
2.402208 -3.426483 -0.898336
1.948306 -3.568675 -0.907862
1.985830 -3.337856 -0.905173
2.010533 -3.110644 -0.901663
2.044812 -2.918648 -0.905852
1.655699 -3.041414 -0.912153
1.690363 -2.846309 -0.905439
1.707306 -2.643018 -0.893869
1.732211 -2.471540 -0.891373
3.797335 -5.451377 -0.920101
3.012847 -5.534589 -0.924794
2.994145 -5.052069 -0.918061
2.971550 -4.620783 -0.912151
2.949156 -4.234693 -0.909646
2.371807 -4.364254 -0.916744
2.389272 -4.037239 -0.911549
2.408234 -3.750287 -0.910581
2.395038 -3.438651 -0.899595
1.936419 -3.572920 -0.907426
1.977067 -3.346448 -0.905854
2.007279 -3.126609 -0.904502
2.034741 -2.923316 -0.905359
